-0.252897 -0.418706 0.266624
-0.241273 -0.424902 0.268636
-0.223410 -0.419372 0.276116
-0.273623 -0.420703 0.241703
0.286570 -0.022936 0.203712
-0.159144 -0.295454 -0.059886
-0.160869 -0.299341 -0.058161
-0.232204 -0.440070 0.239055
0.230849 0.078913 0.154510
0.322106 -0.128155 -0.066652
-0.375972 0.104536 0.309270
-0.388379 0.106036 0.302761
-0.364540 -0.079445 -0.048569
0.008278 -0.275981 -0.202020
-0.011472 -0.287275 -0.194077
0.241468 0.081589 0.047803
0.142451 -0.080737 -0.150948
-0.180265 0.192067 0.045115
-0.170301 0.209554 0.043432
0.127615 0.087544 -0.041909
0.128523 0.077543 -0.055210
0.129328 0.097867 -0.027911
-0.366925 0.004420 0.238369
-0.376354 0.003919 0.226593
0.037109 -0.057879 -0.145902
0.057464 -0.059443 -0.147168
0.053583 -0.065203 -0.155257
0.155499 -0.053928 -0.128826
0.077895 -0.073550 -0.169517
0.079449 -0.399226 0.283991
0.358814 -0.086510 0.070157
0.321636 -0.007464 0.032311
0.008822 -0.243868 -0.212496
0.008395 -0.259627 -0.207239
-0.020722 -0.233267 -0.210118
0.341345 -0.194463 0.179672
0.139515 0.035813 0.232394
-0.420762 0.019082 0.127431
0.008570 -0.104908 -0.195962
0.033325 -0.089656 -0.179781
-0.013160 -0.247178 -0.208218
0.021569 -0.235178 -0.213185
-0.414054 0.149247 0.250458
-0.417648 0.141442 0.250461
-0.181317 -0.441243 0.036823
-0.292968 0.272928 0.143461
-0.064058 -0.426459 0.091953
-0.311749 0.183346 -0.044596
-0.091110 0.054052 0.182860
-0.090631 0.059424 0.176074
0.343309 -0.046243 0.084207
-0.355638 -0.207979 -0.002915
0.333132 -0.049852 -0.002967
-0.140033 -0.437430 0.037979
-0.159942 -0.438040 0.041425
-0.178506 -0.441971 0.024355
0.023838 0.414762 -0.147706
-0.132375 -0.437545 0.039392
-0.157643 -0.440475 0.029134
0.033064 0.382284 -0.151351
-0.119582 -0.198997 -0.105451
-0.136756 -0.192812 -0.101587
-0.138181 -0.186211 -0.105514
-0.125843 -0.336681 0.239503
-0.158584 -0.424192 -0.067532
-0.169709 -0.407148 -0.060770
0.150547 -0.070711 -0.140507
0.040232 0.114628 0.038543
0.099665 -0.274398 0.331406
0.095807 -0.282095 0.329741
0.168656 -0.430567 0.251803
-0.042340 0.325700 -0.046798
-0.105913 -0.389472 -0.097405
0.153822 -0.290453 0.319411
-0.094890 -0.414450 -0.059204
-0.049973 -0.075307 0.272230
-0.059306 -0.079187 0.270890
-0.048253 -0.084972 0.277007
-0.249984 -0.205473 0.247890
-0.118927 -0.439369 -0.122432
-0.270542 0.348688 -0.290145
-0.150234 -0.079934 0.255597
0.224648 -0.246871 -0.145290
-0.224874 -0.330433 -0.007247
-0.230366 -0.342561 -0.002943
-0.106266 -0.423279 -0.094837
-0.124117 -0.434231 -0.108816
0.177807 -0.428430 0.258122
0.046322 -0.437526 -0.114387
0.055232 -0.432233 -0.125307
-0.151521 -0.130154 0.260034
0.280271 0.037629 0.149328
0.283294 0.034618 0.148771
-0.423420 -0.091108 0.100416
-0.421321 -0.101820 0.084898
-0.423404 -0.087664 0.096223
-0.113411 -0.440616 -0.126029
-0.112148 -0.435244 -0.107706
-0.067078 -0.440667 -0.128841
-0.085257 -0.443555 -0.134225
-0.103381 -0.442225 -0.150075
-0.082160 -0.445303 -0.143349
-0.293350 -0.159637 -0.091546
-0.308338 -0.177007 -0.078356
-0.077108 -0.044022 -0.121694
0.033500 -0.410348 0.162164
0.030255 -0.410828 0.164876
0.243331 0.082573 0.091155
0.245820 0.081059 0.086529
0.245377 0.081259 0.087968
-0.291542 0.296323 -0.303758
-0.291091 0.318068 -0.318654
-0.205559 0.138281 0.186111
-0.204387 0.158833 0.168147
0.316955 -0.079362 0.196913
0.283227 -0.048657 0.222691
0.307172 -0.075734 0.209915
-0.304621 -0.186791 -0.076612
0.241710 0.083987 0.087803
0.248907 0.079852 0.078734
0.249956 0.078963 0.067438
0.073811 -0.415038 -0.061769
-0.334270 0.277705 -0.034690
-0.217156 -0.217526 0.243900
-0.179355 -0.184996 0.258819
0.252948 -0.407865 0.188397
-0.079197 0.321800 -0.013316
0.222426 0.095128 0.052581
-0.062518 0.283748 -0.055493
0.225314 0.093495 0.057946
0.256893 0.068102 0.032205
0.252382 0.075730 0.054951
0.441542 -0.271067 0.038219
0.248551 0.077834 0.050086
-0.411449 -0.135916 0.120268
-0.237156 -0.415865 0.273836
-0.225681 -0.420546 0.275134
0.291146 0.027655 0.145062
0.268734 0.029096 0.182938
-0.101471 -0.432846 0.246731
-0.104842 -0.433056 0.235614
-0.066278 0.060010 0.178889
0.056430 -0.406236 -0.145741
-0.058394 -0.318438 -0.142425
0.130827 0.101187 -0.023312
0.093738 -0.053763 0.286793
-0.222471 -0.436555 0.206268
0.068324 -0.072652 0.313427
0.069127 -0.060301 0.293129
-0.147285 -0.351384 0.241649
-0.143835 -0.360438 0.244325
-0.138368 -0.375324 0.250824
0.032384 0.380898 -0.150430
-0.267732 0.289758 -0.279521
-0.136612 -0.362956 0.245941
-0.142589 -0.343316 0.239896
-0.098792 0.026913 0.206320
-0.177707 -0.419573 -0.083133
-0.157426 -0.434036 -0.109017
-0.189791 -0.440377 0.166869
0.001641 0.382486 -0.121451
-0.001745 0.408635 -0.123161
-0.183550 -0.438584 0.046010
0.198702 -0.061989 -0.120754
0.228603 -0.061439 -0.110487
0.367408 -0.179768 0.067140
-0.205942 -0.316828 0.109196
0.242740 0.000821 -0.070391
0.261066 0.022743 -0.036670
0.072748 -0.397876 0.286564
0.075749 -0.392397 0.287022
-0.343810 0.310718 -0.206892
-0.090314 -0.061779 -0.125559
-0.127917 0.015629 0.212153
-0.311894 0.406885 -0.315446
-0.304940 0.404228 -0.312094
0.320439 -0.086202 -0.053272
-0.418412 -0.110602 0.129407
-0.196279 -0.122302 -0.115744
-0.211808 -0.105746 -0.115560
0.235453 0.079510 0.140214
0.238303 0.083811 0.110049
0.220790 0.090206 0.137088
0.246641 0.080163 0.091560
-0.007282 -0.021590 0.251729
-0.037909 -0.008677 0.241715
-0.024165 -0.011958 0.244919
-0.179936 0.191581 0.018796
-0.182350 0.183331 0.021731
-0.256773 0.273471 0.043617
-0.064413 0.333288 -0.032122
-0.039906 -0.104470 0.297152
-0.107054 -0.136282 0.257659
-0.135355 -0.119212 0.257744
-0.130998 -0.148953 0.257806
0.363635 -0.165894 0.046527
0.364677 -0.159249 0.053076
-0.299190 -0.381837 0.028945
-0.299933 -0.384334 0.030270
-0.440471 0.072332 0.242046
-0.441610 0.060716 0.231549
-0.375804 0.130525 0.305003
-0.389823 0.161198 0.280089
-0.143983 -0.436702 -0.114990
0.257774 0.072372 0.084842
0.246326 0.080650 0.095393
-0.057683 0.091904 0.092900
-0.050571 0.090416 0.095929
0.241849 0.081479 0.047560
-0.025262 -0.037403 0.255683
-0.120727 -0.440725 -0.146722
-0.101223 -0.444438 -0.147827
-0.110295 -0.434037 -0.111635
-0.099897 0.077981 0.146778
-0.094332 0.066481 0.166727
-0.267399 0.313529 -0.312212
-0.297122 0.312217 -0.294366
0.284561 0.032205 0.008777
0.254004 0.070245 0.030634
-0.145628 -0.328242 -0.059556
0.011726 -0.410652 0.052961
0.019632 -0.410241 0.021161
0.018035 -0.410353 0.051785
-0.350965 -0.122786 -0.060909
-0.159938 -0.372227 -0.072064
-0.332865 0.250069 0.204613
-0.320538 0.239525 0.224956
-0.304156 0.364365 -0.226666
0.060940 -0.267858 0.329650
0.090926 0.112699 0.160848
0.294591 -0.351676 -0.035850
-0.051771 0.081168 -0.020467
-0.055422 0.086854 -0.005526
-0.187907 -0.241961 0.235648
-0.192030 -0.233609 0.239858
-0.192727 -0.230520 0.241154
-0.195336 -0.244864 0.231695
-0.298339 0.340429 -0.165387
-0.291610 0.332128 -0.147707
-0.107433 0.084002 0.137173
0.289956 -0.318616 -0.057821
-0.239623 -0.172549 0.263032
-0.243222 -0.185806 0.257403
-0.232123 -0.199363 0.251894
0.293517 -0.073849 0.225177
0.295609 -0.088032 0.230134
-0.348152 -0.126401 0.228346
-0.334381 -0.132873 0.238485
-0.357085 -0.139893 0.218909
-0.149314 -0.425013 -0.136336
-0.168629 0.002450 -0.097648
-0.091587 -0.368024 0.262003
-0.085092 -0.350440 0.252968
-0.111457 -0.363944 0.255044
-0.257373 -0.415186 0.263619
-0.093979 -0.252961 -0.094181
-0.114594 -0.226640 -0.093263
-0.363973 -0.010619 -0.023855
-0.367429 -0.036587 -0.034514
-0.235391 -0.439244 0.243358
-0.251503 -0.422206 0.264758
-0.276911 -0.048305 -0.094240
-0.311062 -0.041224 -0.075478
0.402747 -0.344311 0.155135
-0.370854 0.067148 -0.018641
-0.236286 -0.437559 0.192512
-0.216506 -0.438162 0.190466
-0.234898 -0.438153 0.235873
-0.222066 -0.436754 0.208374
-0.445416 0.073048 0.140398
-0.374613 0.254256 0.166807
0.305438 -0.156115 -0.088221
-0.275529 -0.092430 -0.101317
-0.245490 -0.092330 -0.111951
-0.284891 -0.096862 -0.098541
-0.205280 -0.432920 0.128180
0.321402 -0.063600 -0.036141
-0.166224 -0.432047 0.075593
0.264640 0.057849 0.023282
0.275399 0.057104 0.068984
0.257195 0.073947 0.072531
0.166851 0.109619 0.005039
-0.104521 -0.431040 0.146125
-0.212622 -0.349601 0.227762
-0.278834 0.320588 -0.142983
-0.171306 -0.441360 0.023695
-0.258068 -0.176474 -0.101437
-0.279976 -0.135088 -0.102090
-0.262868 -0.156626 -0.103963
-0.268408 -0.030183 0.241829
-0.178955 0.245832 0.068303
-0.185035 0.250476 0.072212
-0.180994 0.245925 0.070487
0.350204 -0.127673 0.149901
0.036112 -0.409610 -0.002624
-0.338704 -0.143603 0.232837
-0.329724 -0.151394 0.238534
-0.118087 -0.409254 -0.049781
0.200201 0.079517 0.185895
0.208688 0.076174 0.185510
0.261113 0.032583 0.186603
-0.290484 -0.030683 -0.083284
-0.377043 -0.096566 0.202086
-0.357249 -0.089265 0.220216
-0.331266 -0.246465 0.140855
-0.282250 -0.276037 0.131701
-0.300534 -0.104689 -0.091016
-0.265008 -0.100407 -0.106438
-0.367680 0.127812 -0.021143
-0.360186 0.142820 -0.022392
-0.096531 -0.429636 0.132481
-0.101018 -0.429988 0.124473
0.024976 0.354904 -0.117099
-0.004516 0.341205 -0.094011
-0.012269 0.344908 -0.094255
-0.089518 -0.414159 -0.070300
0.128946 -0.404668 0.278710
-0.092280 -0.275868 0.235980
-0.121701 -0.403015 -0.157779
-0.087646 -0.414440 -0.070341
-0.282022 -0.408208 0.222035
-0.282681 -0.420280 0.218561
-0.266982 -0.420339 0.249605
0.006742 0.350659 -0.100520
-0.053513 -0.407330 0.321476
-0.015670 -0.273339 0.290099
-0.001719 -0.261305 0.309009
-0.299641 -0.246780 -0.023129
0.005384 0.380067 -0.128507
0.011186 0.373420 -0.131872
-0.127520 -0.436474 -0.146952
-0.095445 -0.439568 -0.130134
0.128359 0.064139 -0.068739
0.150212 0.068700 -0.061334
0.160171 0.056296 -0.071043
-0.416899 -0.101400 0.056385
-0.072822 -0.300137 0.232996
-0.073445 -0.299755 0.233256
-0.076334 -0.302179 0.232870
0.204626 -0.197040 -0.156567
-0.281543 0.386151 -0.319619
-0.279697 0.396769 -0.331443
-0.341029 -0.208608 0.186887
0.266344 -0.406665 0.176059
0.177998 0.115110 0.037669
0.172704 0.113690 0.027490
0.399228 -0.330652 0.165816
0.263401 -0.402787 0.183689
-0.369423 -0.197631 0.009452
0.135554 0.011315 0.242067
0.143634 0.002653 0.244750
-0.007047 -0.366239 -0.156559
0.004050 -0.383490 -0.155101
0.343972 -0.084665 0.152610
0.317585 -0.042218 0.177931
-0.299381 0.405526 -0.320391
-0.307947 0.401615 -0.305593
-0.325876 0.403161 -0.299567
-0.018302 -0.373968 -0.155175
0.084320 -0.427185 0.087130
-0.155068 -0.129408 0.260593
-0.159200 -0.106591 0.259307
-0.160806 -0.123380 0.260756
-0.234156 -0.337716 0.009630
-0.215325 -0.351426 -0.024134
-0.201822 -0.353576 0.118795
-0.315778 -0.226086 0.195503
-0.322677 -0.222607 0.192186
0.335824 -0.247208 -0.027238
-0.009219 -0.319138 -0.176636
-0.003617 -0.310825 -0.184616
0.007895 -0.306807 -0.189190
-0.006218 -0.306102 -0.187015
-0.015339 -0.288286 -0.192599
-0.019995 -0.307571 -0.178850
-0.136608 0.280603 0.037334
0.002947 -0.280428 -0.199335
-0.003039 -0.394789 0.310329
-0.027592 -0.287091 -0.187862
-0.026323 -0.264775 -0.197773
-0.003762 -0.307163 -0.186919
-0.019630 -0.272735 -0.197989
0.276562 -0.419619 0.141350
0.096673 -0.308537 0.327122
0.151238 -0.316226 0.312563
0.333047 -0.042786 0.144500
-0.270418 0.255296 0.006810
-0.022775 -0.382597 0.313896
-0.030413 -0.412107 0.319358
-0.010319 -0.397713 0.313956
-0.060570 -0.143496 -0.197904
-0.055761 -0.146533 -0.202184
-0.066463 -0.125725 -0.178046
-0.083361 -0.249966 -0.123130
-0.084762 -0.241774 -0.129769
0.319342 -0.015253 0.008710
0.243252 0.037186 0.200137
-0.270582 -0.429072 0.224152
-0.271472 -0.191669 -0.091663
-0.258425 -0.218477 -0.082540
0.412795 -0.322498 0.158629
0.266466 0.061266 0.040745
0.280740 0.049993 0.081938
-0.205016 -0.446433 0.006432
-0.161609 -0.435002 -0.046538
-0.272677 0.370196 -0.340155
-0.229344 -0.439187 0.187396
-0.128777 0.304843 0.026052
0.241316 -0.382196 0.231478
-0.153845 -0.427945 -0.125171
0.286908 -0.367421 0.197418
0.240182 -0.432646 0.062124
0.229717 -0.432913 0.078871
-0.415330 0.192321 0.060786
-0.044002 0.286594 -0.035795
-0.227098 -0.441196 0.169851
-0.244252 -0.440339 0.174184
-0.224966 -0.438374 0.137736
-0.307828 0.406375 -0.314756
-0.121272 -0.300846 0.236660
-0.304734 0.407905 -0.317964
-0.056997 -0.050508 0.261301
0.295049 0.032362 0.061898
-0.077461 -0.417207 -0.006722
-0.020079 -0.185994 -0.220161
-0.020026 -0.185796 -0.220342
-0.020966 -0.174799 -0.219543
-0.426800 0.029954 0.142953
-0.408344 0.013435 0.170611
-0.159990 -0.440962 0.017135
0.324331 -0.017301 0.142405
0.311891 0.011631 0.054639
-0.032957 -0.159803 -0.215311
0.015625 -0.138571 -0.214858
-0.308347 0.256227 0.193182
-0.344013 0.257353 0.184106
-0.010644 -0.090905 -0.180380
-0.167378 -0.442589 0.009195
0.323815 -0.015944 0.141695
-0.135438 -0.431067 -0.022097
-0.160925 -0.440545 -0.063065
-0.135929 -0.427784 -0.033044
-0.380436 0.123942 0.304330
-0.421643 0.141678 0.240297
0.023109 0.316309 -0.079700
-0.157434 -0.439121 -0.069043
-0.161853 0.233452 0.045145
-0.172229 0.212533 0.050777
-0.160525 0.247100 0.045812
-0.131321 0.237140 0.017222
-0.161116 0.224648 0.038332
-0.155034 0.223808 0.030441
-0.139603 0.238626 0.028072
-0.133848 0.244702 0.028483
0.363509 -0.188476 0.126584
-0.130727 -0.389570 -0.138284
-0.129561 -0.430324 -0.085595
-0.141424 0.241330 0.030156
-0.274983 0.369147 -0.336785
-0.277198 0.375806 -0.340385
-0.039352 0.283318 -0.026532
-0.265858 -0.406419 0.253655
-0.245904 -0.420727 0.268899
-0.252807 -0.385283 0.254783
-0.122762 -0.436867 -0.112832
-0.374259 0.120857 0.308032
0.278734 0.046913 0.127295
-0.138819 -0.432602 -0.143458
-0.326698 0.269604 0.091249
-0.323635 0.268912 0.089301
0.293068 -0.428795 0.074176
0.229054 -0.317807 -0.135319
-0.092568 -0.442448 -0.152727
-0.102782 -0.444192 -0.147162
-0.273657 -0.414138 0.243501
-0.041726 -0.421345 0.107934
-0.152555 -0.376861 0.247877
-0.138815 -0.361064 0.245657
0.166001 -0.184989 0.324993
-0.273016 -0.418729 0.243082
-0.293108 -0.415004 0.082646
-0.272169 -0.393789 0.069593
-0.090903 -0.152708 0.259487
-0.037509 0.284447 -0.021182
-0.307430 0.265697 0.012737
0.234705 0.087167 0.108249
0.219108 0.096311 0.096670
0.201348 0.102800 0.129537
-0.262671 -0.131527 -0.107947
-0.003718 -0.412038 -0.028613
-0.442134 0.060650 0.207183
0.409667 -0.320097 0.163931
-0.378028 0.046942 0.294995
-0.172503 -0.432720 -0.076139
-0.168370 -0.441018 -0.059990
-0.166157 -0.436960 -0.083336
0.447549 -0.304404 0.086819
-0.365504 -0.047442 0.200355
0.033098 -0.423721 -0.133802
0.047524 -0.417705 -0.138844
-0.231426 -0.221478 0.239708
-0.206086 -0.243232 0.227557
0.387418 -0.295171 -0.010861
0.021443 0.349396 -0.114700
-0.167782 0.314900 0.033885
-0.109299 -0.255569 0.240892
-0.094565 -0.242359 0.240687
-0.359821 0.128861 -0.024651
-0.365733 0.139566 -0.020320
0.188768 -0.352785 0.272840
0.300147 -0.030937 -0.043879
-0.190177 -0.282252 0.210128
-0.086491 -0.258011 0.236927
-0.009744 0.383796 -0.112238
0.010428 0.352891 -0.107339
-0.188006 0.177079 0.060727
-0.293888 0.370154 -0.327464
-0.014312 -0.429384 -0.143305
-0.021933 -0.412442 -0.151823
-0.061844 -0.423263 -0.157095
-0.091572 -0.417064 -0.017385
0.103030 0.116553 0.146315
-0.123443 -0.288661 0.238027
-0.254608 -0.430124 0.251287
-0.248888 -0.436457 0.240479
-0.255515 -0.434013 0.239919
-0.318201 -0.071113 -0.075553
0.368661 -0.345481 0.180584
-0.421026 0.089863 0.271470
-0.422997 0.108378 0.261816
0.002557 0.399911 -0.135015
0.018836 0.385621 -0.147847
-0.323912 0.261637 -0.188699
-0.316292 0.233757 -0.193992
-0.302549 -0.239794 -0.031920
0.103955 0.125003 0.067150
-0.186109 0.157579 0.054508
-0.218535 -0.438860 0.147791
-0.206214 0.197200 0.147439
-0.019223 -0.435231 -0.134399
-0.333302 -0.181801 0.220250
-0.337850 -0.157331 0.229299
-0.309275 0.051971 -0.042039
-0.299031 -0.271232 0.130807
0.105082 0.115359 0.152553
0.113704 0.114830 0.154890
0.135369 0.105786 0.172671
-0.032898 -0.420491 0.319767
-0.292420 0.198587 -0.050109
-0.361639 -0.196176 -0.009812
-0.157718 0.032013 0.196984
-0.333788 0.269215 0.101050
-0.331189 0.269539 0.107258
-0.231576 0.257598 0.148097
0.028246 -0.411002 0.075225
0.032893 -0.410657 0.070020
0.007466 -0.410659 0.095165
0.032314 -0.398836 -0.149700
0.041126 -0.420225 -0.136929
-0.268262 -0.021898 0.239275
-0.230490 -0.019397 0.240925
-0.387181 -0.063525 -0.019277
-0.057573 -0.105410 0.281596
-0.049246 -0.121365 0.299820
-0.020514 -0.188875 -0.220008
-0.020285 -0.208240 -0.216789
-0.337198 -0.108669 0.236876
-0.345151 -0.099924 0.230805
-0.002978 -0.173247 -0.221371
-0.122645 0.104768 0.079097
0.067285 -0.295676 0.327284
-0.205854 -0.442645 0.033030
-0.163160 -0.440881 0.032896
-0.188216 -0.444097 0.023955
-0.052028 0.298649 -0.015632
-0.051143 -0.426147 -0.152117
-0.183049 -0.074566 0.260722
-0.155330 -0.063031 0.253837
-0.301288 -0.274658 0.107717
-0.307217 -0.271379 0.108771
-0.303002 0.406507 -0.320996
-0.312199 0.406104 -0.315385
-0.135733 -0.433155 -0.008132
-0.170005 -0.439288 -0.036101
-0.154629 -0.434998 -0.024257
-0.043769 0.423538 -0.060254
-0.024769 0.425178 -0.085311
-0.154312 -0.435630 -0.043402
-0.041036 -0.140153 -0.207918
-0.011521 -0.132995 -0.211593
-0.003729 -0.139503 -0.213998
-0.001555 -0.127852 -0.210404
-0.012566 -0.116922 -0.203416
-0.032609 -0.145095 -0.211967
0.053798 -0.099147 -0.193793
-0.049318 -0.121031 0.299710
-0.042773 -0.093508 0.284943
-0.042797 -0.106427 0.296534
-0.050432 -0.137488 0.304759
-0.079510 -0.260953 0.235871
-0.218401 0.278648 0.063642
-0.154123 0.265667 -0.040874
-0.161052 -0.024666 0.241227
-0.151710 -0.042089 0.248103
-0.142850 0.285197 -0.052906
-0.121838 -0.435332 -0.105376
-0.123250 -0.434513 -0.110739
-0.171610 -0.383086 -0.068672
0.037291 -0.417194 -0.069793
0.161693 -0.293938 0.314507
0.031019 0.108241 0.023014
-0.084846 -0.250240 0.238500
-0.114359 -0.235837 0.243248
-0.077345 0.095047 0.041713
-0.108235 0.097445 0.017740
-0.099530 -0.432218 -0.163176
-0.312946 -0.398404 0.027308
-0.309005 -0.433069 0.045273
0.080507 0.109753 -0.002422
-0.196405 0.201321 0.091773
-0.201089 0.232552 0.102585
-0.100367 -0.241275 0.241941
0.362938 -0.290263 -0.016491
-0.001969 0.335846 -0.092833
0.151389 0.126629 0.058155
-0.435026 0.103282 0.177766
0.312188 -0.421287 0.065018
-0.114074 -0.062993 -0.123612
0.216881 -0.386339 -0.099011
-0.010709 0.336458 -0.092887
-0.007055 0.330711 -0.091097
0.007737 0.355119 -0.098105
0.003370 0.337636 -0.091908
0.002332 0.375039 -0.104454
-0.041975 0.377307 -0.108286
0.290513 0.028361 0.013777
-0.228547 -0.219432 0.241424
0.006850 -0.363799 -0.160431
-0.204523 0.294824 -0.006601
-0.205860 0.311317 0.010363
-0.269109 -0.287705 0.101297
-0.190202 0.319378 0.013535
-0.009841 -0.403609 -0.153232
0.043492 -0.196876 -0.214297
0.023388 -0.177621 -0.219410
0.039588 -0.169927 -0.215954
0.263657 0.056541 0.142982
0.256803 0.064877 0.135788
0.266905 0.044309 0.166145
-0.032933 0.283980 -0.021847
-0.026298 -0.178416 0.326425
-0.192730 0.221078 -0.005430
-0.204078 -0.261183 0.212671
-0.190523 -0.253730 0.227941
-0.275313 0.390152 -0.340912
-0.203703 -0.446136 0.011172
-0.340422 -0.080680 -0.064483
-0.201767 0.141292 0.179088
-0.188423 0.137701 0.160298
-0.182118 0.126008 0.159467
-0.259343 -0.433533 0.229668
-0.272580 -0.425903 0.231505
-0.268327 -0.414319 0.248222
-0.256109 -0.411919 0.265707
-0.275645 -0.420125 0.238860
0.009286 -0.299103 -0.193305
-0.010746 -0.308634 -0.183111
0.427935 -0.279757 0.019429
-0.279155 -0.424288 0.223663
-0.268126 -0.429038 0.231126
-0.021094 -0.279558 -0.194029
-0.032493 -0.275208 -0.191399
-0.274086 -0.424356 0.231227
-0.352738 0.364683 -0.239816
0.250853 0.069602 0.137147
-0.112775 -0.055731 -0.120854
0.135547 -0.102664 -0.169514
0.176652 -0.141457 -0.166801
-0.009630 -0.284791 -0.196303
-0.008617 -0.266587 -0.203194
-0.028872 -0.286380 -0.187409
-0.251070 -0.437137 0.229463
0.172445 0.049976 -0.071898
0.162570 0.061997 -0.065127
-0.388875 0.147506 0.288376
-0.404149 0.142444 0.274811
-0.252887 -0.439761 0.178300
-0.030872 -0.269833 -0.194580
-0.237555 -0.061757 -0.109183
-0.228072 -0.071564 -0.112082
0.294826 0.035014 0.077705
-0.286320 0.323382 -0.131641
-0.273442 0.313969 -0.142511
0.276624 0.056274 0.084429
-0.224668 -0.439995 0.154852
-0.229252 -0.441257 0.171196
0.281614 0.047640 0.049933
0.278904 0.049321 0.041047
0.291264 0.026731 0.013126
0.291103 0.039250 0.056680
0.351416 -0.077515 0.020096
-0.225713 -0.438478 0.128769
-0.225630 -0.438565 0.128644
-0.204088 -0.434794 0.127359
-0.210794 -0.436437 0.107161
-0.381382 -0.078805 -0.032451
0.030547 0.112955 0.041405
-0.326917 0.310131 -0.073184
-0.364255 -0.161794 -0.042020
-0.390191 -0.140231 -0.015469
0.046130 -0.280134 -0.195785
-0.182737 -0.443180 0.025771
-0.199908 -0.439606 0.049460
-0.202728 -0.440470 0.045991
0.138675 0.032211 0.233868
-0.222027 -0.441062 0.043343
0.356164 -0.163052 0.005045
0.389148 -0.251368 0.166972
-0.303448 0.340038 -0.158542
-0.175900 -0.442259 0.024504
-0.190351 -0.444140 0.013706
-0.193983 -0.444475 0.015497
-0.180263 -0.442391 0.028019
-0.018465 -0.161100 -0.218543
-0.021330 -0.140571 -0.213189
-0.288381 0.272592 0.116377
0.342521 -0.210641 0.178094
-0.118891 -0.242308 0.242977
0.356585 -0.107414 0.020186
0.351086 -0.086240 0.012913
-0.171759 -0.440342 -0.004041
-0.143630 0.280351 -0.052450
-0.025985 -0.151378 -0.215059
-0.401417 -0.079786 0.165867
0.249927 -0.004849 0.222377
-0.275489 -0.286847 0.059841
-0.289204 -0.280428 0.089841
0.284678 0.033274 0.011994
0.272320 0.053712 0.037999
0.349290 -0.180067 0.163777
-0.145179 -0.433130 -0.029363
-0.128716 -0.425725 -0.079127
0.326801 -0.021638 0.136659
0.313286 0.002008 0.141164
0.300443 0.024299 0.034364
0.042997 -0.298102 -0.191221
-0.196228 0.187399 0.094809
0.443796 -0.241751 0.095364
-0.020095 0.332907 -0.076654
-0.113034 -0.424133 -0.095220
-0.117474 -0.412184 -0.086847
-0.124023 -0.441549 -0.120980
-0.444706 0.088982 0.136045
-0.025630 0.346532 -0.085176
-0.061783 0.035091 0.204066
0.081844 -0.356841 0.300688
-0.117057 -0.441450 -0.128951
-0.102236 -0.437211 -0.115123
-0.113411 -0.431895 -0.159168
-0.125624 -0.435975 -0.147882
0.368228 -0.274031 -0.007744
-0.270078 0.326580 -0.205808
-0.101230 -0.409485 -0.167661
-0.254373 -0.294919 0.042446
-0.304689 -0.273912 0.050994
-0.057860 -0.011017 0.240960
-0.328034 0.322151 -0.097145
-0.269664 -0.281407 0.010806
-0.303892 -0.089065 0.253421
0.224417 -0.084778 0.281516
0.178159 -0.434174 0.025512
0.044055 0.014566 -0.101182
-0.026075 0.387172 -0.092101
-0.007866 0.377452 -0.100769
-0.020987 0.388131 -0.099998
-0.315908 -0.076676 0.244879
-0.161622 -0.404833 -0.107579
-0.194814 0.306927 -0.011569
-0.417421 0.184765 0.197175
0.172253 0.063404 0.207065
-0.018827 -0.376586 -0.154390
-0.216644 -0.233436 0.234442
0.270914 -0.295738 0.242988
0.128152 -0.417205 0.189732
0.129888 -0.420738 0.209258
-0.024193 -0.355556 -0.152426
-0.075044 0.019114 -0.089368
-0.192091 -0.097783 -0.117001
-0.328221 -0.133048 0.243511
-0.303398 -0.150509 0.255175
-0.300589 -0.166079 0.251284
0.056345 -0.411438 0.282256
0.061052 -0.406602 0.283439
-0.021459 -0.356827 -0.153774
-0.245829 -0.255533 0.201645
-0.222203 -0.251130 0.217735
-0.039215 -0.359327 -0.148316
0.231683 -0.106272 -0.134114
-0.018689 -0.024619 0.250762
-0.047839 -0.052621 0.262965
0.242410 -0.060037 -0.106502
-0.238681 -0.266893 0.185032
-0.220395 -0.279202 0.177829
-0.091362 -0.155113 0.259588
0.229100 -0.432600 0.068227
-0.260697 -0.428596 0.246352
-0.331464 0.246172 -0.161408
-0.333926 0.265080 -0.170401
-0.002202 -0.299169 -0.191752
-0.263294 0.306685 -0.277732
0.280110 0.051746 0.074839
-0.280287 -0.141307 -0.100696
0.310748 0.002108 0.012333
0.187950 -0.078358 -0.132479
0.205175 -0.078730 -0.127672
0.197851 -0.101971 -0.141765
-0.022008 -0.266672 -0.199151
-0.201476 0.170702 0.154607
-0.261829 -0.437813 0.165938
0.171234 -0.430475 0.253937
-0.243607 -0.439440 0.160532
-0.026450 -0.231174 -0.208085
-0.023477 -0.274015 -0.195557
0.166256 0.002155 -0.100726
0.003710 -0.312121 -0.186644
-0.233736 -0.439299 0.154201
-0.034105 -0.201569 -0.214683
-0.007832 -0.220175 -0.216438
-0.022560 -0.216376 -0.215334
-0.030536 -0.198609 -0.216003
-0.031307 -0.197485 -0.215917
0.169318 0.121781 0.090199
0.173007 0.119969 0.079128
0.152498 0.123543 0.111389
-0.218186 -0.436783 0.109540
0.139898 -0.164394 0.331874
0.100129 0.096242 0.195200
0.119956 0.080763 0.209431
0.073240 0.086161 0.205645
-0.315954 0.227191 -0.188042
-0.175089 0.313514 -0.038515
0.103869 -0.270648 0.331807
-0.202918 -0.439619 0.048911
0.069090 0.118147 0.043230
-0.018480 -0.164875 -0.219429
-0.014964 -0.141744 -0.214792
-0.222177 -0.439352 0.058895
-0.421734 0.199044 0.172855
-0.407165 0.210370 0.198937
-0.423847 0.180156 0.166335
-0.161230 -0.440535 0.001048
0.216157 -0.432907 0.007203
0.256753 0.056778 0.158844
0.275345 0.047664 0.133380
-0.193191 -0.433555 -0.052284
-0.191904 -0.441550 -0.025385
0.264708 0.055835 0.142939
-0.272331 0.318844 -0.166738
-0.207609 0.199723 0.151807
-0.207883 0.206866 0.149730
-0.214306 0.244594 0.127255
-0.171162 -0.437088 -0.069368
-0.129747 -0.427277 -0.063451
-0.155135 -0.434841 -0.065739
-0.212708 0.242023 0.132049
-0.218248 0.240607 0.149676
-0.159555 -0.442014 -0.084520
-0.157685 -0.438920 -0.067942
-0.191276 0.168923 0.079157
-0.374046 -0.069372 0.198336
-0.096022 -0.195870 0.249318
0.344769 -0.395926 0.023041
-0.272172 0.321414 -0.323540
-0.019416 -0.014319 -0.113313
-0.031551 -0.031574 -0.120180
-0.032338 -0.032709 -0.120609
-0.046960 -0.042741 -0.123211
-0.012716 -0.033099 -0.121574
0.236239 0.084430 0.038134
-0.120692 -0.435682 -0.156436
-0.113133 -0.440524 -0.152935
0.108673 -0.338947 -0.163256
0.122070 -0.352823 -0.154673
0.130030 -0.325704 -0.164924
-0.397909 -0.014254 0.140464
-0.404539 -0.010067 0.112131
-0.106323 -0.433257 0.039865
0.210396 0.007175 0.231717
0.232714 -0.016352 0.238795
0.230156 0.020533 0.217556
0.184556 0.043449 0.217592
0.170104 0.049460 0.217133
0.338017 -0.364556 0.182303
0.358528 -0.086348 0.087951
0.173542 -0.430589 0.180545
-0.016711 0.329608 -0.086574
0.281478 -0.429307 0.049392
0.223217 -0.433508 0.040917
0.140129 -0.440247 -0.107235
0.038586 0.345326 -0.122749
0.252590 0.055038 0.171228
-0.258806 -0.434764 0.114200
-0.151244 -0.055037 -0.117419
-0.171795 -0.339899 -0.051387
-0.167253 -0.341043 -0.055576
-0.420089 0.193845 0.181419
-0.060976 -0.229758 -0.185927
-0.359599 -0.207207 0.003542
-0.333196 -0.204668 -0.043421
-0.270656 0.338521 -0.318309
-0.186845 -0.190090 0.257920
-0.234279 -0.249984 0.213204
-0.223999 -0.250480 0.217894
-0.218292 -0.262625 0.205340
-0.388712 -0.030498 0.002895
-0.430334 0.143026 0.119151
0.222362 -0.006868 0.237650
-0.241020 -0.259208 0.198415
-0.231259 -0.261943 0.200127
-0.230890 -0.263311 0.199093
0.114120 -0.413184 0.198790
0.092748 -0.409598 0.189189
-0.167731 -0.180431 0.258042
-0.173957 -0.193088 0.256015
0.099260 -0.411676 0.153847
0.198096 -0.432194 0.057490
0.343427 -0.392171 0.014019
-0.274187 -0.420868 0.239720
-0.274615 -0.422100 0.235445
0.010934 -0.319448 -0.184384
0.021361 -0.363561 -0.163482
-0.091226 -0.153326 0.259256
-0.090390 -0.150688 0.259642
-0.114504 -0.174249 0.254880
-0.117920 -0.157642 0.256024
0.359038 -0.174192 0.129567
-0.046785 -0.430317 -0.144727
0.355304 -0.155902 0.136757
-0.077741 -0.367129 0.271366
-0.264319 -0.433639 0.166977
0.110057 0.125650 0.105311
-0.279967 -0.431346 0.190883
-0.248852 -0.438438 0.196984
-0.353837 0.336034 -0.189026
-0.328953 0.365658 -0.202518
-0.158064 -0.018709 0.238779
0.126936 -0.422822 -0.049435
0.063973 -0.163810 0.344293
0.077505 -0.155361 0.343168
-0.344314 0.226411 0.242805
-0.325846 0.221544 0.248842
-0.323745 0.222298 0.248243
0.074279 0.104794 0.176408
-0.205165 0.155274 0.172350
-0.275738 -0.432506 0.177995
0.044036 -0.203718 0.338025
-0.314272 0.232205 0.237161
-0.366235 -0.172228 -0.031066
-0.248479 -0.432240 0.134292
-0.042038 -0.329190 0.264187
-0.191158 0.152773 0.023466
-0.183098 0.184803 0.015457
-0.194324 0.166339 0.016500
-0.050549 0.371633 -0.105156
-0.060600 0.091752 0.089160
-0.083846 0.092053 0.099953
-0.212929 -0.437394 0.111862
-0.295333 -0.128418 0.260817
0.046384 -0.219915 0.337027
0.078074 -0.231115 0.339158
0.340382 -0.194226 0.181216
-0.195335 0.194060 0.086985
-0.309275 -0.185127 0.236599
0.443444 -0.255476 0.050880
-0.269390 -0.080713 0.260086
0.065918 -0.292654 0.327840
0.071764 -0.306593 0.325014
-0.082239 -0.081039 -0.132759
0.086729 -0.382475 0.289003
-0.040533 -0.023405 -0.115600
-0.258521 -0.175483 0.258622
-0.415235 0.081661 0.281388
-0.421089 0.082245 0.274932
-0.348714 -0.186761 -0.042516
0.346256 -0.090328 0.149778
-0.253104 -0.424379 0.132480
-0.113333 -0.118719 -0.128591
-0.032533 -0.398599 -0.155081
-0.053810 -0.385838 -0.153261
-0.058793 -0.020895 0.246618
-0.052014 -0.028285 0.250961
0.341884 -0.282706 0.188449
-0.191839 0.241765 -0.015583
0.179480 -0.434579 -0.019185
-0.071476 -0.422936 0.206830
-0.061135 -0.422083 0.222397
-0.169869 -0.438100 -0.030497
-0.046222 -0.437592 -0.141424
-0.189986 -0.435398 -0.048369
-0.173015 -0.439520 -0.059445
0.341830 -0.376647 -0.005178
-0.189457 -0.432571 -0.059405
-0.440821 0.090437 0.156200
-0.050949 -0.087750 0.276045
-0.019234 -0.388793 -0.155061
-0.367154 -0.111170 0.213868
-0.379996 -0.123036 0.199589
-0.387863 0.028864 0.010921
0.013360 0.364123 -0.122938
0.020144 0.372010 -0.135834
-0.284615 0.279461 -0.290297
-0.141013 -0.429413 -0.133735
-0.137814 -0.433993 -0.139095
-0.124815 -0.433359 -0.152613
-0.247680 -0.089092 0.266397
-0.226269 -0.090534 0.268182
-0.273631 -0.116101 0.266884
-0.299111 -0.101127 0.258079
-0.163249 -0.243959 0.241831
-0.156017 -0.226578 0.245954
-0.360882 0.047415 -0.020699
-0.361392 0.039906 -0.017077
-0.097475 -0.094381 0.261810
-0.102459 -0.087555 0.259598
0.106525 -0.430583 0.051733
0.075731 -0.415053 0.026779
-0.264358 -0.424385 0.141919
0.043932 0.045567 0.239819
0.056756 0.034279 0.246464
0.022734 0.028477 0.243672
-0.196253 0.166879 0.138139
-0.416970 -0.097121 0.058394
-0.415373 -0.107224 0.050296
-0.415060 -0.093907 0.053289
-0.201009 0.194042 0.115456
-0.270096 -0.207979 0.241280
-0.339768 0.268466 0.147497
-0.324942 0.268981 0.158284
-0.218578 -0.246016 0.222244
-0.228159 -0.259811 0.203890
-0.429370 0.131808 0.213198
0.048621 -0.419871 0.283372
-0.028142 -0.417882 -0.150810
0.011230 -0.389092 -0.153363
-0.223521 -0.251449 0.217651
-0.267884 -0.242429 0.208080
-0.204246 -0.378016 -0.045844
0.108911 -0.080873 -0.164182
-0.235005 -0.255632 0.208125
-0.254930 -0.222384 0.236058
-0.248305 -0.258192 0.195399
-0.137800 -0.234145 0.244884
-0.223879 -0.255583 0.211536
-0.207577 -0.383058 -0.044997
-0.026831 -0.349852 -0.152388
0.007672 -0.328699 -0.178236
-0.211676 -0.360339 -0.032004
-0.298337 0.208108 -0.108161
0.008440 -0.289742 -0.196955
0.015166 -0.299772 -0.194017
0.208730 -0.221664 -0.154484
-0.404169 -0.151604 0.112935
-0.003708 -0.284202 -0.197103
0.001857 -0.253855 0.316432
-0.011369 -0.306475 -0.184699
-0.038934 -0.314726 -0.163087
-0.040427 -0.326244 -0.152901
0.003861 0.100379 0.012471
-0.405219 -0.154223 0.043972
-0.126266 0.341335 -0.064576
-0.108174 0.327750 -0.072452
-0.085007 0.320560 -0.076710
-0.097748 0.372521 -0.026987
-0.263374 -0.435807 0.167013
-0.239010 -0.440370 0.158474
-0.078375 -0.192515 -0.182654
-0.063740 -0.196161 -0.199215
-0.078414 -0.195687 -0.181620
0.350694 -0.066030 0.106000
0.341708 -0.190604 0.179039
0.006167 0.315015 -0.067215
-0.171860 0.244335 0.058748
-0.408152 -0.075390 0.152534
-0.409172 -0.049048 0.134573
-0.277856 0.307222 -0.309352
-0.268808 -0.406046 0.164118
-0.262318 -0.436334 0.166356
0.057929 -0.154257 0.343392
0.092721 -0.178651 0.343381
0.131118 0.001114 0.246692
0.130642 0.001645 0.246637
0.363781 -0.190959 0.126799
-0.096775 -0.335155 -0.070416
0.248418 0.072207 0.134267
-0.200877 0.183955 0.136244
-0.334351 0.212296 -0.045753
-0.349576 0.173565 -0.025839
0.294226 0.033207 0.111737
0.298450 0.024536 0.127559
-0.238243 -0.287503 -0.010081
-0.240404 -0.304427 0.014096
0.312484 -0.363931 -0.023184
-0.228115 -0.438451 0.077507
-0.219419 -0.438456 0.068955
-0.209746 -0.436998 0.104654
-0.286312 0.211036 -0.088475
-0.211098 -0.440210 0.055327
-0.207924 -0.438109 0.070425
-0.007390 -0.390907 0.309833
-0.312724 0.271733 0.114739
0.265837 -0.016090 -0.069602
0.091761 -0.430780 0.075946
-0.213059 -0.439476 0.055695
-0.415648 -0.062496 0.129080
-0.396098 0.167313 0.267093
-0.071842 -0.414843 -0.051979
-0.160521 -0.035806 0.246524
-0.163659 -0.031636 0.245344
-0.114690 -0.012544 0.234315
-0.380187 -0.143266 0.191280
0.220498 0.096449 0.082718
-0.199619 -0.443878 0.027886
-0.386334 0.095664 0.303067
0.048209 -0.413490 0.087256
-0.358608 0.259187 0.047115
-0.215692 0.226241 0.160678
-0.138989 0.314761 -0.060541
-0.155643 -0.434234 -0.034221
-0.204362 -0.434366 -0.047097
-0.306552 0.046968 0.312922
-0.167019 -0.438187 -0.036780
-0.178632 -0.436195 -0.055826
-0.246661 0.235448 -0.010744
-0.209307 0.235091 0.132181
-0.059882 -0.157049 -0.202603
-0.013143 -0.151738 -0.217523
0.025936 -0.433938 -0.117910
-0.033508 -0.435879 -0.131054
-0.025773 -0.118517 -0.203523
-0.188607 0.180844 0.066967
-0.157479 -0.440704 -0.102119
0.082190 -0.220193 0.340755
0.133165 -0.393494 -0.134524
0.096161 -0.408530 -0.136989
-0.181044 0.225888 0.067744
-0.182014 0.225651 0.069745
-0.133642 -0.437047 -0.142799
-0.045411 -0.030183 -0.118229
0.448245 -0.297902 0.071726
0.447382 -0.254614 0.104493
0.448968 -0.258935 0.109173
0.299144 -0.059508 -0.063988
0.266656 0.062449 0.048384
0.281186 0.048893 0.054576
-0.106480 0.084077 -0.022954
-0.110570 0.095046 0.005352
-0.352359 -0.111009 -0.059771
-0.361857 -0.136899 -0.050788
-0.369977 -0.103903 -0.044645
-0.175819 0.136387 0.118328
-0.357567 -0.166431 -0.047204
-0.350599 -0.178533 -0.046954
-0.365587 -0.171747 -0.033557
-0.286984 -0.225504 -0.062736
-0.422436 0.066720 0.273423
-0.411467 0.073196 0.285264
-0.406731 0.074165 0.289849
-0.227951 -0.240406 0.225110
-0.223090 -0.215248 0.244333
-0.050228 -0.422263 -0.089262
-0.081991 -0.417825 -0.092134
-0.202985 0.264020 0.078782
-0.304072 -0.193273 -0.074237
-0.234580 -0.253831 0.210045
0.390740 -0.365824 0.142856
0.380823 -0.373249 0.141196
-0.253397 -0.253730 0.197798
0.083947 0.111444 0.002546
0.073154 -0.289984 0.328353
-0.060663 0.366149 -0.102648
0.318915 -0.024675 -0.005125
0.337080 -0.064519 -0.005952
-0.169877 -0.432726 0.246253
-0.196037 -0.433515 0.218800
0.027711 -0.406529 0.131204
-0.281043 -0.427490 0.183650
-0.039221 0.387156 -0.107821
-0.013966 0.404696 -0.115375
-0.275870 -0.420481 0.237696
-0.281374 -0.426025 0.219864
-0.179194 0.254077 0.067901
-0.270460 -0.432763 0.169380
-0.391357 -0.012967 0.167730
-0.240433 -0.438421 0.149355
-0.114482 -0.049065 0.249274
0.234152 0.077681 0.004857
-0.022540 -0.392985 -0.154870
-0.050925 -0.373265 -0.148669
0.337906 -0.060553 -0.000922
0.335025 -0.066329 -0.012887
-0.011027 -0.326164 -0.171763
-0.005068 -0.203592 -0.220683
-0.029927 -0.192935 -0.216801
-0.248572 -0.436614 0.102546
-0.012243 -0.209727 -0.218430
-0.012734 -0.214249 -0.216458
0.208492 0.074350 -0.031437
-0.026976 -0.347569 -0.153149
0.251409 -0.432380 0.071058
0.300441 -0.422889 0.043277
0.300227 -0.402048 0.001701
0.156942 0.115016 0.136605
-0.292873 0.313039 -0.312499
-0.327023 0.246250 -0.195498
-0.321038 0.267445 -0.187409
-0.172045 -0.054361 0.254517
-0.161271 -0.069676 0.255879
-0.365842 0.132659 -0.021096
0.086714 -0.409038 0.152002
-0.238219 -0.311665 0.047308
-0.136454 0.295502 -0.058118
-0.215895 -0.433634 -0.043345
-0.156343 -0.436193 -0.022570
-0.192303 -0.442336 -0.009726
-0.162813 -0.436480 -0.024351
-0.366791 -0.119635 0.213410
-0.175166 -0.437275 -0.068963
-0.384343 0.257637 0.076343
-0.290309 0.395087 -0.325854
-0.259977 0.253760 -0.130429
-0.096726 -0.337074 -0.070558
0.062933 0.024300 0.251667
-0.205825 -0.297325 0.176166
-0.140001 0.240827 0.029628
-0.166251 0.230476 0.049109
-0.330706 0.188753 -0.039234
0.356225 -0.386820 0.015345
-0.032302 -0.350457 -0.151357
0.311657 -0.304158 0.203946
-0.140313 -0.086120 0.255562
-0.178290 -0.107392 0.263554
-0.387075 -0.045308 0.173387
-0.388160 -0.068956 0.179998
-0.380321 -0.051968 0.185245
-0.146987 0.244532 0.037773
-0.317621 0.277960 -0.195142
0.250441 -0.432697 0.104449
0.247230 -0.433044 0.100742
0.342752 -0.075581 0.148722
-0.067512 -0.109523 0.275233
-0.045892 -0.099398 0.285919
0.166684 -0.433681 -0.071231
0.173511 -0.434493 -0.054440
-0.284187 -0.081239 -0.095295
-0.035080 -0.255747 -0.196766
-0.013376 -0.427824 0.311154
0.098397 -0.433897 0.079771
-0.260027 -0.062870 -0.103190
0.096522 -0.410518 -0.039033
0.097751 -0.410022 -0.038348
0.080788 -0.420029 -0.073835
-0.031115 -0.232115 -0.206281
-0.130034 -0.148829 0.257872
-0.053528 -0.248029 -0.185537
-0.052203 -0.252632 -0.184811
-0.170760 -0.412356 -0.089129
-0.176579 -0.424146 -0.045128
-0.168101 -0.416288 -0.058347
0.335667 -0.059346 -0.006187
-0.060090 -0.229877 -0.187319
-0.018955 -0.243100 -0.207410
-0.027587 -0.234134 -0.206508
-0.050588 -0.192288 -0.209457
-0.042080 -0.236030 -0.199007
0.173100 0.120115 0.078805
0.130342 0.128553 0.078606
-0.231109 -0.248115 0.216307
-0.043922 -0.181850 -0.213158
-0.040899 -0.209689 -0.209970
-0.105022 0.350429 -0.002870
-0.141991 0.363437 -0.023901
-0.253748 0.246572 0.192270
-0.241105 0.245661 0.180353
-0.247754 0.253272 0.176512
0.080523 -0.075171 0.317473
-0.002751 -0.416540 0.306558
-0.240120 -0.273431 0.174240
-0.241055 -0.270027 0.178838
0.109551 -0.435591 0.078280
-0.208998 0.237130 0.128718
-0.199224 0.222176 0.103284
0.090145 -0.423562 0.043454
0.103617 -0.435041 0.079139
0.095034 -0.431691 0.066927
0.298598 0.021917 0.020814
-0.206148 0.224266 0.127014
-0.253489 -0.295991 0.043154
-0.285120 -0.420793 0.204396
0.237714 0.068298 0.167682
-0.269021 0.324235 -0.333502
0.350118 -0.061616 0.074486
-0.221505 -0.120894 0.270326
-0.253835 -0.141521 0.268965
-0.242509 -0.133592 0.269958
-0.328201 0.364790 -0.198383
-0.331240 0.348579 -0.161043
-0.258375 -0.435263 0.147526
0.062078 0.116941 0.039444
0.038158 0.114648 0.044022
-0.281977 -0.161990 -0.096577
-0.025078 0.331605 -0.067336
0.119132 -0.327403 0.318815
-0.255496 -0.420689 0.123589
-0.146964 0.088186 0.145896
-0.133996 0.071235 0.159387
-0.143767 0.089430 0.142483
-0.254769 -0.433460 0.144375
0.110586 -0.248044 0.336289
-0.048028 -0.045640 -0.124142
0.122036 -0.322734 0.320251
0.152621 -0.321114 0.310397
-0.011867 -0.411921 0.044456
-0.256695 -0.025833 -0.093818
-0.153838 -0.376672 0.248366
-0.170364 -0.389335 0.252186
0.305494 0.011743 0.015434
0.308936 0.009028 0.020388
0.304914 0.013218 0.016577
-0.268409 0.311847 -0.282887
-0.319494 0.319115 -0.227841
-0.020528 -0.434243 -0.140561
-0.266569 0.325061 -0.317575
0.438907 -0.246059 0.123928
-0.411303 0.093667 0.283621
-0.410620 0.101638 0.283037
-0.101412 -0.018800 0.239195
0.008080 -0.414453 -0.065340
-0.169810 -0.439329 -0.036185
0.145837 0.101342 0.176501
0.135649 0.084329 0.201203
-0.039256 0.356556 -0.073235
-0.038087 0.339228 -0.073040
-0.020086 0.340147 -0.090570
-0.422910 -0.086263 0.096940
-0.031553 0.370696 -0.099601
-0.023639 0.343199 -0.088604
-0.009110 0.375169 -0.093853
-0.049023 -0.369637 0.303897
-0.164890 -0.440378 -0.078539
-0.171660 -0.436312 -0.056191
0.362800 -0.271575 0.181014
0.311374 -0.358635 0.190899
0.317877 -0.377228 0.177394
0.256418 0.046360 0.177004
0.244425 0.056352 0.179656
-0.035581 -0.415787 0.050125
-0.325786 0.270620 -0.185937
-0.208110 0.304621 0.032352
-0.151268 0.240104 0.034393
-0.180065 0.254669 0.067850
-0.154519 -0.432915 -0.120078
-0.137056 -0.426029 -0.148618
-0.074704 -0.260496 -0.147835
-0.120829 -0.430408 -0.159044
-0.030712 -0.008478 -0.109175
0.151160 -0.007267 0.248593
0.140495 -0.007925 0.250515
0.173219 -0.002490 0.245294
0.104933 -0.412681 -0.030820
0.441179 -0.314657 0.054479
0.145164 -0.435652 0.118609
0.135994 -0.433640 0.122079
-0.026905 -0.412418 0.172553
-0.055068 -0.416316 0.167129
-0.025625 -0.411447 0.186789
0.052515 -0.409660 0.190715
0.068001 -0.408516 0.191739
0.070279 -0.409799 0.197593
0.056253 -0.398295 0.286637
-0.027447 -0.346304 -0.152933
-0.016397 -0.347403 -0.158267
-0.235097 0.268216 0.095953
-0.000434 -0.411019 0.013846
0.010780 -0.410397 0.040374
-0.068767 0.309498 -0.073125
-0.364375 -0.163596 0.201365
0.240083 0.071430 0.156572
0.253324 0.051358 0.175397
0.233883 0.066282 0.177486
-0.116200 -0.120944 0.257472
-0.122222 -0.126925 0.256964
-0.262442 -0.263575 0.172760
-0.227364 -0.280142 0.168677
0.406854 -0.357270 0.126277
-0.384644 0.199786 0.015493
0.446908 -0.303055 0.104869
0.032181 -0.410852 -0.006884
0.049214 -0.409837 -0.019623
0.227367 0.065517 0.185910
-0.333428 0.296422 -0.201749
0.432125 -0.328275 0.118944
-0.331370 0.290519 -0.199713
-0.359569 -0.062651 -0.050299
-0.437754 0.095780 0.226825
0.221152 0.093835 0.117748
0.205406 0.091177 0.160530
-0.047380 0.299511 -0.071642
0.444937 -0.293526 0.120426
-0.251743 -0.436192 0.104977
-0.224605 -0.438915 0.106658
-0.257779 -0.435940 0.114220
-0.142010 -0.086027 -0.122790
0.442014 -0.304957 0.118974
-0.228891 -0.439021 0.097646
0.441668 -0.305827 0.119695
-0.177131 -0.056217 0.255611
0.181694 -0.430223 0.251455
0.447561 -0.300458 0.106142
0.444379 -0.307817 0.110088
0.339770 -0.200779 0.182519
-0.007218 -0.412289 0.178594
-0.289252 0.372278 -0.265820
-0.315309 0.391209 -0.276169
-0.083440 -0.425770 0.290124
-0.111266 -0.414604 0.282893
-0.081782 -0.424331 0.292469
0.038614 0.035339 0.244572
-0.400256 -0.155173 0.124020
-0.207696 -0.444410 0.003906
-0.208896 -0.445172 0.022593
0.036631 -0.410373 0.159058
-0.050722 -0.087043 0.275742
-0.062039 -0.095568 0.275051
0.052002 0.028822 0.249313
-0.217825 -0.239176 -0.072670
-0.043924 -0.191917 -0.212750
-0.047364 -0.213017 -0.205346
-0.067037 -0.186367 -0.197802
-0.037961 -0.184376 -0.215111
-0.057468 -0.152403 -0.203145
0.053924 -0.011419 0.260375
-0.137399 -0.333055 0.239141
-0.042107 -0.120887 -0.197560
-0.078813 -0.257417 -0.129001
0.015242 0.326293 -0.092420
0.049654 -0.039763 0.268851
-0.424991 0.057786 0.270187
0.008605 -0.415281 -0.074090
-0.046638 -0.414149 0.186638
-0.056909 -0.416619 0.183415
-0.285053 -0.112405 -0.100050
-0.303853 -0.092351 -0.087482
-0.415425 0.212796 0.179738
-0.241391 -0.295227 0.004243
-0.383229 0.238026 0.194270
0.143815 -0.294020 0.322094
0.154881 -0.332156 0.301800
0.080937 -0.418422 0.035959
0.105948 -0.431299 0.055796
-0.176842 -0.140760 0.265085
-0.156699 -0.168496 0.259506
-0.158683 -0.129977 0.260801
0.092346 -0.410797 -0.016698
0.054949 -0.409946 0.001721
0.090659 -0.410650 -0.015433
-0.174079 -0.181230 0.258668
0.248553 0.079683 0.081996
-0.167386 -0.163293 0.261216
-0.284766 -0.091503 -0.097374
-0.392688 -0.102638 -0.015206
-0.381327 -0.121703 -0.031126
-0.269195 -0.248549 0.196285
0.023506 -0.104477 0.335298
0.146097 -0.007419 -0.108379
0.122552 -0.027059 -0.115922
-0.249356 -0.257220 0.196051
-0.260253 -0.261197 0.179400
-0.231075 -0.262633 0.199882
0.216862 -0.432605 0.060202
-0.240334 -0.273937 0.170157
0.345316 -0.059967 0.018605
-0.224977 -0.290748 0.147795
-0.424970 0.175322 0.156715
0.221645 0.011130 -0.073534
0.231468 0.003764 -0.073825
0.191488 0.098468 0.157649
-0.359240 0.150206 0.302896
0.018018 -0.409799 0.300528
-0.341424 -0.221819 0.169058
-0.282815 -0.422749 0.219825
-0.277013 -0.422336 0.231674
-0.249487 -0.400099 0.140853
-0.258264 -0.424646 0.127042
0.226714 -0.024797 -0.090443
0.278304 0.028416 -0.007632
0.272472 0.050839 0.023118
-0.344575 0.315285 -0.199225
-0.352042 0.327218 -0.203958
0.223620 -0.185816 -0.145062
-0.265503 -0.417265 0.055604
0.106812 0.105753 0.180774
-0.253562 -0.105055 0.269019
-0.001467 -0.413010 -0.008237
-0.270444 0.108812 -0.043282
-0.008578 -0.411007 0.020673
-0.236472 -0.442674 0.025212
0.278457 -0.373939 0.199910
-0.064240 -0.290419 0.236051
-0.306865 0.259239 -0.273924
0.211296 0.086521 0.166367
-0.059306 0.328189 -0.085187
0.324014 -0.015741 0.141572
-0.147455 0.094391 0.137832
-0.187634 -0.440535 -0.031744
-0.440636 0.081166 0.222772
-0.442157 0.069670 0.229640
-0.439170 0.094929 0.221310
0.028484 -0.267855 0.324937
0.029940 -0.264323 0.325394
-0.228854 0.256383 0.143380
-0.227997 0.255300 0.143752
0.113354 -0.123788 -0.187439
0.136461 -0.103150 -0.169797
-0.034280 0.384288 -0.093491
-0.053279 0.381373 -0.103411
-0.059708 0.368843 -0.101918
-0.244349 0.263653 0.145433
-0.224632 0.247282 0.152481
0.118863 -0.132324 -0.189112
-0.275112 -0.438434 -0.015186
-0.262378 -0.442621 -0.011161
-0.288193 -0.442295 -0.005362
0.322109 -0.008955 0.124472
0.082692 -0.415129 0.012764
0.135909 0.125587 0.040098
0.312046 0.010492 0.098049
-0.054649 0.369128 -0.103622
-0.274807 0.374749 -0.303451
-0.401762 -0.162359 0.060988
-0.403278 -0.158139 0.073738
0.077446 -0.410872 -0.001619
0.097644 -0.411434 -0.020192
0.102512 -0.413352 -0.011933
0.200624 -0.433497 -0.006161
0.072085 -0.249916 0.334435
-0.215371 0.246070 0.127970
-0.271021 -0.222485 0.230420
0.006454 -0.359437 -0.162143
0.014931 -0.370140 -0.159599
-0.043780 -0.375038 -0.151553
-0.066438 0.050334 -0.062594
-0.354398 -0.149898 -0.055454
-0.384084 -0.110016 -0.028916
-0.344760 -0.148836 -0.062693
0.026987 -0.286919 0.319389
0.072258 -0.273995 0.330094
-0.174266 0.233126 0.060036
-0.183057 0.234719 0.074248
-0.356137 0.216569 0.252036
-0.341490 0.117020 -0.033306
-0.337858 0.091579 -0.035786
-0.359572 -0.018978 0.208547
-0.254015 -0.269049 0.169659
-0.271697 -0.280840 0.130485
-0.270691 -0.256593 0.180031
-0.050250 -0.367096 0.299454
-0.047116 -0.367624 0.301945
-0.019276 -0.195130 0.326979
0.143588 -0.314646 0.315647
-0.042929 -0.333871 -0.150225
-0.036953 -0.356197 -0.148632
-0.045031 -0.244808 -0.193164
-0.271576 -0.032862 -0.091462
0.179958 0.079699 0.192364
0.226914 0.052970 0.198189
-0.318688 0.279282 -0.021211
-0.344459 -0.197686 0.196221
-0.064076 -0.215487 -0.191384
-0.278491 0.349797 -0.274640
-0.368887 0.211563 0.249846
-0.379969 0.216314 0.236315
0.247141 -0.428534 0.019796
-0.038527 -0.206930 -0.211957
-0.387814 -0.075351 0.183338
-0.399684 -0.100502 0.170888
0.050193 -0.421928 -0.078696
0.059980 -0.422212 -0.078594
0.085764 -0.416004 -0.064127
0.124390 -0.218331 -0.191525
-0.334867 0.263211 0.004993
0.130416 -0.128226 0.330456
0.115137 -0.124684 0.332832
0.153426 -0.153388 0.328102
-0.004822 -0.220900 -0.216547
0.036829 0.083324 -0.041483
-0.229172 -0.442757 0.027268
-0.087539 0.084918 0.133595
-0.083703 0.080068 0.144065
0.085606 0.058936 0.232017
0.100889 0.047570 0.237566
-0.422804 0.189701 0.078312
-0.385178 -0.103030 0.192122
-0.208204 0.225785 0.137844
-0.073037 -0.368872 -0.143333
-0.286687 -0.179217 -0.089422
-0.295039 -0.175049 -0.086400
0.006005 0.335980 -0.102265
-0.216435 -0.439604 -0.052654
0.020718 0.363565 -0.127413
-0.040377 -0.191704 -0.213557
-0.064684 -0.164036 -0.200143
-0.320445 -0.421350 0.041598
-0.323664 -0.423660 0.030070
-0.208414 0.237355 0.121831
-0.286911 0.256494 0.194241
0.403852 -0.237818 0.025583
-0.204611 0.222614 0.121515
-0.261713 0.245536 0.203339
-0.040138 0.002333 0.235394
0.219851 -0.432467 0.113511
0.219158 -0.432757 0.121780
-0.180695 -0.165295 0.263649
-0.333078 0.240369 0.222748
-0.170146 -0.157014 0.262353
-0.054452 -0.047646 -0.124315
0.061215 -0.409905 0.001448
-0.438091 0.115705 0.083443
-0.165894 -0.386536 -0.075027
-0.182780 0.267480 0.064342
-0.181290 0.248500 0.069448
0.166506 -0.337682 0.293372
0.135360 -0.354326 0.295097
-0.250219 -0.242660 0.214891
-0.307110 -0.219004 0.211102
-0.154631 0.239959 0.036338
-0.041406 -0.063200 0.267607
-0.065367 -0.042529 0.256330
0.249327 0.077442 0.053962
0.254549 0.069509 0.031056
-0.138832 -0.396395 -0.135891
-0.251949 -0.252318 0.200007
0.144114 -0.145157 -0.183735
-0.267529 -0.257463 0.181281
-0.032938 -0.176032 -0.216822
-0.248411 -0.275615 0.159163
-0.344907 0.171897 -0.029506
-0.324629 0.171664 -0.036611
0.252497 -0.107785 0.270795
-0.073485 -0.072912 -0.132027
-0.086520 -0.055097 -0.124947
0.267464 -0.110215 0.260528
0.188271 0.087476 0.180004
0.184171 0.099995 0.161284
0.209714 0.090710 0.156445
-0.265037 -0.272486 0.152763
-0.271959 -0.275503 0.143567
-0.044093 -0.123201 0.307107
-0.049070 -0.115989 0.295493
-0.252156 -0.291312 0.118954
-0.254422 -0.290858 0.119756
-0.155493 -0.326581 0.235571
-0.311671 -0.426666 -0.001244
-0.313301 -0.431886 0.044366
-0.302354 -0.441708 0.024313
-0.348939 -0.071177 0.223784
-0.327785 -0.058397 0.232519
-0.074683 -0.278875 0.234788
-0.260633 -0.432211 0.147266
-0.003299 -0.411943 -0.049975
