0.332234 -0.318082 -0.033186
0.354273 -0.309138 -0.022546
0.347427 -0.305070 -0.008817
-0.035106 -0.209307 -0.210372
-0.059306 -0.194380 -0.226344
-0.055786 -0.184522 -0.202100
0.016548 0.413742 -0.121357
-0.017658 0.404036 -0.102204
0.320893 -0.222022 -0.054443
0.312859 -0.196783 -0.064735
0.173266 0.095079 0.023211
0.171187 0.103422 0.036793
-0.233749 -0.027865 -0.087152
-0.250359 -0.029646 -0.095448
-0.011049 0.280219 -0.062502
-0.271238 -0.418202 0.148778
-0.270105 -0.442421 0.128180
-0.260241 -0.394972 0.156990
-0.268479 -0.429808 0.148718
-0.247033 0.182077 0.180641
-0.354949 0.254509 0.197765
-0.361383 0.250586 0.189772
-0.367472 0.261785 0.221905
-0.064156 0.081928 0.163310
-0.043804 0.076781 0.163165
-0.159874 0.187417 0.051464
-0.208463 0.173750 0.067213
-0.180403 0.157932 0.064140
-0.449398 0.125031 0.095975
-0.426230 0.130210 0.061599
-0.451074 0.105356 0.067123
-0.072529 0.060421 0.180916
-0.213046 0.179596 0.179278
0.283044 -0.190635 0.255852
0.289444 -0.017991 0.198650
0.267342 -0.011638 0.195585
-0.033679 0.290232 -0.071042
-0.260123 -0.352023 0.046348
-0.263197 -0.366921 0.066255
-0.219045 -0.354441 0.046108
-0.237361 -0.350947 0.036368
-0.421156 0.023691 0.050389
-0.118223 -0.045720 0.254375
-0.286389 -0.196717 -0.064260
-0.276585 -0.178480 -0.071419
-0.295049 -0.224735 -0.091858
0.339522 -0.179121 0.184412
-0.187662 0.163611 0.172671
-0.272837 0.202963 -0.032416
-0.258801 0.204000 -0.001435
-0.256237 0.220680 -0.016921
-0.445523 0.066315 0.137968
0.349612 -0.122905 -0.001275
0.370344 -0.123889 -0.005289
0.355802 -0.130060 0.004319
0.239412 -0.069405 0.259866
0.211897 -0.055218 0.267170
0.211758 0.087931 0.064340
0.217769 0.124465 0.029084
0.213900 0.102809 0.045951
0.227080 0.083346 0.048831
-0.103666 0.318383 -0.070427
-0.098738 0.293894 -0.063265
-0.080967 0.323810 -0.064226
0.127377 -0.445796 -0.002019
-0.123769 -0.388166 -0.098571
-0.132873 -0.343560 -0.090451
0.353409 -0.159792 -0.017381
-0.264796 -0.408080 0.136468
-0.269904 -0.396094 0.144528
0.128563 0.072498 0.225903
0.131448 0.081723 0.195604
0.122315 0.077485 0.208040
0.331234 -0.006091 0.138981
0.320349 -0.021704 0.157802
0.318110 0.000475 0.121643
0.127275 0.088603 0.200890
0.118928 0.086605 0.199834
0.301002 0.005191 0.143316
-0.363455 -0.176256 0.000100
-0.335488 -0.169854 -0.084279
-0.349028 -0.167641 -0.048179
-0.035303 0.329697 -0.047250
0.265161 -0.359856 0.227261
-0.183906 -0.429689 0.101263
-0.015110 -0.237941 0.285420
0.326454 -0.195763 0.198301
0.336785 -0.169072 0.197911
-0.014355 -0.235063 0.332179
-0.016162 -0.215979 0.286714
-0.260495 -0.181665 0.259002
-0.254188 -0.190373 0.247784
-0.232391 -0.222839 0.239477
0.186356 -0.433754 0.076543
0.263816 -0.334467 0.240030
0.269882 -0.353123 0.223897
0.261176 -0.295651 0.250873
0.297987 -0.318963 0.245256
0.061242 -0.128640 0.341581
0.113198 -0.114715 0.351839
0.106103 -0.096590 0.342354
-0.026982 -0.253379 -0.213320
-0.268085 -0.183525 0.268004
-0.252542 -0.163378 0.264893
-0.250721 -0.179894 0.256721
0.340225 -0.323845 -0.039401
-0.410280 -0.057960 0.042890
-0.122595 0.220701 -0.025221
0.365306 -0.221284 0.012109
0.339381 -0.232116 0.011414
-0.429806 -0.074728 0.050735
-0.259148 -0.444952 0.124703
-0.233853 -0.141920 0.260628
-0.255876 -0.142935 0.244658
-0.401972 -0.072037 0.040592
0.251777 -0.342644 -0.091508
0.282637 -0.333769 -0.070797
0.270788 -0.351599 -0.099937
0.331937 -0.133412 -0.009695
0.353836 -0.133469 -0.031524
0.336017 -0.150814 -0.040436
0.287238 -0.238119 -0.094734
0.188645 -0.419527 -0.086304
0.189329 -0.432752 -0.090801
0.191545 -0.431955 -0.082613
0.123374 0.039171 0.230721
0.121601 -0.001054 0.239052
0.129137 0.013112 0.261062
-0.431715 0.145620 0.052746
-0.413057 0.144162 0.035726
0.258488 0.039628 -0.032810
0.242152 0.060310 -0.013386
0.257760 0.047477 -0.035121
0.091826 -0.400327 0.297137
0.092253 -0.434986 0.265049
0.138634 0.070664 -0.046082
0.149370 0.105319 -0.051619
-0.287422 0.289597 -0.254948
-0.410816 0.009098 0.108844
-0.408892 -0.002360 0.152232
-0.414692 -0.000690 0.178130
-0.244435 -0.083502 0.250599
-0.257530 -0.077302 0.259104
-0.292739 0.287760 -0.277926
-0.145739 0.009909 -0.104022
-0.114356 0.012312 -0.091387
-0.163963 0.038130 -0.084992
-0.216111 0.095129 0.187752
0.151206 -0.114746 0.313380
0.159238 -0.095757 0.324120
0.128670 -0.090972 0.337565
0.172351 -0.125335 0.308608
0.178537 -0.128551 0.301631
0.216938 -0.242918 0.286463
0.004902 0.413897 -0.133491
0.000338 0.369927 -0.153957
0.025110 0.396133 -0.142493
-0.031567 -0.390846 0.298703
-0.039438 -0.387329 0.335006
-0.046756 -0.379392 0.320257
-0.216549 0.042604 0.225106
-0.020742 0.062224 0.216579
-0.074715 0.036381 0.200302
0.021376 0.380761 -0.164524
0.003083 0.377738 -0.133490
0.024651 0.392643 -0.140541
0.075980 -0.396917 0.210502
0.022049 0.373695 -0.143963
-0.234831 0.015570 0.221118
-0.275235 -0.393428 0.053730
-0.321140 -0.380012 0.078491
-0.274345 -0.352802 0.037862
-0.017028 0.367352 -0.152603
0.010961 0.365789 -0.130621
0.196530 -0.267710 0.310862
0.409771 -0.272538 0.176897
0.401606 -0.247955 0.180678
0.400693 -0.276294 0.177915
0.248176 -0.322385 0.236480
0.240401 -0.303447 0.243204
0.286897 -0.200257 0.270753
0.263930 -0.213577 0.248393
-0.374124 -0.200286 0.028654
-0.377901 -0.205361 0.041015
-0.389117 -0.200579 0.053819
-0.420434 -0.061318 0.082830
-0.431898 -0.045872 0.078577
-0.407814 -0.048947 0.080669
-0.411130 -0.065040 0.067279
-0.148850 0.010230 -0.071012
-0.136279 0.012056 -0.106294
0.297701 -0.320721 0.234780
0.275824 -0.282735 0.224786
-0.259409 0.299300 -0.217977
-0.180153 0.058881 0.182629
-0.171724 0.059086 0.182717
-0.268562 0.287663 -0.230330
-0.304386 0.122379 -0.041115
0.300530 -0.181412 -0.072310
-0.380012 -0.221192 -0.000015
0.070875 -0.420438 0.053173
-0.051256 -0.383572 0.011002
-0.072362 -0.438674 0.020008
-0.054978 -0.406474 0.024435
0.273804 -0.002335 -0.070552
-0.115366 -0.452101 0.272141
-0.094392 -0.429086 0.261947
-0.100517 -0.436744 0.256075
-0.073770 -0.435828 0.182184
-0.104770 -0.427298 0.190313
-0.083717 -0.434914 0.179727
-0.282332 -0.387976 0.041568
-0.301874 -0.006256 -0.065825
-0.074737 0.053425 0.196437
-0.018742 0.015680 0.209230
-0.072842 0.023900 0.196261
-0.287580 0.124028 0.227717
-0.273014 0.135424 0.218253
-0.293740 0.147706 0.225937
0.111679 -0.199023 0.316293
0.122864 -0.217012 0.338351
0.122554 -0.216472 0.333919
-0.042532 -0.400713 0.182067
-0.241225 0.109169 0.246204
-0.138019 0.227157 -0.009189
0.151409 -0.046284 0.268277
0.041127 -0.374861 -0.158506
0.023126 -0.407686 -0.158488
0.038929 -0.380515 -0.152874
0.104576 0.049458 0.247195
0.092799 0.047515 0.267276
-0.143049 0.066203 0.176621
0.236426 -0.147038 0.287588
-0.175333 -0.424894 -0.059142
0.219096 -0.180261 0.275765
0.198329 0.086838 0.028252
0.087008 -0.427566 0.272200
0.079336 -0.429597 0.293456
0.071256 -0.434798 0.284428
-0.135878 0.047146 0.154850
-0.350601 -0.135097 -0.065591
-0.334858 -0.126729 -0.070954
-0.331239 -0.109408 -0.082557
-0.345067 -0.127481 -0.063216
0.332323 -0.017270 0.182595
0.313930 -0.050833 0.165181
0.290143 -0.347486 -0.046855
0.298067 -0.318475 -0.036677
0.284447 -0.313276 -0.079567
-0.260895 0.288050 -0.273633
0.221131 -0.246904 0.250750
0.229462 -0.240326 0.252064
0.220273 -0.261861 0.266572
0.229172 -0.274603 0.290420
0.098814 -0.033122 -0.139591
0.174735 0.061467 -0.045284
0.169785 0.060204 -0.061114
-0.072746 -0.226456 -0.186563
-0.066438 -0.180725 -0.202307
0.191891 0.061562 -0.095413
-0.240762 -0.374987 0.269223
-0.201875 -0.382712 0.253074
-0.451866 0.116373 0.117833
-0.431709 0.078645 0.131451
-0.446027 0.085767 0.139292
0.267015 -0.326196 0.241567
-0.057859 0.278440 -0.065388
-0.030725 0.299101 -0.058987
0.037768 -0.027303 0.273775
0.032647 -0.007175 0.251048
0.042486 -0.013392 0.248190
-0.278006 0.391132 -0.350317
-0.283313 0.411746 -0.314114
-0.250548 0.280502 0.032082
-0.262758 0.270629 0.010714
-0.262866 0.259962 0.016021
-0.043693 -0.403542 0.046625
0.296396 -0.190358 0.224007
0.292130 -0.205900 0.215912
-0.263567 0.266208 0.027423
-0.074477 0.374363 0.001781
-0.102965 0.365314 0.011552
-0.325442 -0.024314 -0.066082
0.150531 0.105068 0.194619
0.138611 0.090800 0.193608
0.283864 -0.306758 -0.086803
0.260809 -0.294033 -0.077618
0.142871 0.101081 0.186663
0.362186 -0.340331 -0.024998
0.388116 -0.359584 -0.039141
0.374497 -0.344093 -0.034341
-0.111976 0.058932 0.175672
0.048589 -0.386292 -0.131754
0.058945 -0.405264 -0.163622
0.029222 -0.405231 -0.157700
-0.411254 0.205682 0.089915
-0.418974 0.176375 0.055950
-0.405081 0.190860 0.078991
-0.332300 0.232527 -0.130762
-0.312374 0.223344 -0.156788
-0.313550 0.244108 -0.121824
-0.105487 -0.222771 0.241252
0.026914 0.276609 -0.051051
-0.032953 0.281857 -0.055194
0.385531 -0.345295 -0.005474
-0.242980 0.265639 -0.112705
-0.250833 0.268653 -0.103873
0.299665 -0.094767 0.245209
0.289759 -0.118630 0.208479
0.435460 -0.232823 0.135559
-0.079527 -0.256764 -0.055209
-0.354495 0.250300 0.165405
-0.354797 0.290651 0.174971
-0.329486 0.270644 0.172105
-0.339158 0.265777 0.190763
-0.241317 -0.211797 0.247531
0.454189 -0.280155 0.113929
0.279873 -0.103530 0.229035
0.004150 -0.417850 -0.020095
0.023489 -0.429536 -0.029555
-0.270819 0.227617 -0.042330
-0.262628 0.226190 -0.048884
-0.006725 -0.433099 0.187791
-0.046663 -0.427207 0.200343
-0.231101 -0.177470 0.256314
-0.224179 -0.184672 0.278872
-0.247517 -0.397348 0.235370
-0.253992 -0.383171 0.234259
-0.260891 -0.378858 0.227586
-0.061618 0.418752 -0.046710
-0.012198 0.418255 -0.065126
-0.223766 -0.160377 0.273940
-0.244289 -0.172832 0.257632
-0.235373 -0.171798 0.272089
0.059866 -0.399613 -0.029751
0.057227 -0.411462 -0.023305
0.057992 -0.402346 -0.022814
-0.059895 -0.279504 -0.192554
-0.045813 -0.279134 -0.200948
-0.037203 -0.264580 -0.167392
0.326995 -0.314080 -0.019390
0.329222 -0.300792 -0.025312
-0.283532 -0.356961 0.242319
-0.255195 0.247252 -0.121230
-0.238151 0.248669 -0.162541
-0.262996 0.246358 -0.133005
-0.260384 -0.443687 0.058933
-0.275803 -0.424132 0.055575
0.274083 0.034788 0.027901
0.401489 -0.176584 0.100588
0.374189 -0.183437 0.121227
0.037683 -0.417480 0.095878
0.070598 -0.442246 0.097069
0.053172 -0.424920 0.096227
-0.243692 -0.444349 0.134794
0.430097 -0.313468 0.005622
0.345871 -0.176879 0.107481
-0.114674 -0.052101 -0.077043
-0.110145 -0.082465 -0.116966
-0.138188 -0.074427 -0.140210
0.233689 -0.431980 0.155739
0.266974 -0.425152 0.133753
-0.188655 -0.342185 0.227010
-0.200336 -0.325416 0.242990
-0.206804 -0.338384 0.219655
-0.180632 -0.339318 0.232825
-0.198439 -0.345040 0.241616
-0.072086 0.393084 -0.089825
0.261375 -0.339749 -0.072332
0.277413 -0.361763 -0.058091
0.427442 -0.257420 0.177951
0.396171 -0.242143 0.150257
0.404909 -0.247619 0.158554
0.399485 -0.265163 0.189654
0.065382 -0.408266 -0.172142
0.021688 -0.383333 0.301799
0.066788 -0.402683 -0.185754
0.080310 -0.375832 -0.169178
0.065763 -0.362570 -0.139402
-0.426209 0.078730 0.094478
-0.225126 -0.373604 0.224846
-0.262597 -0.361906 0.184724
-0.248315 -0.370645 0.220046
-0.164872 0.127516 0.031295
-0.187484 0.152288 0.028346
0.020739 -0.363338 0.278880
-0.422698 0.120257 0.024260
-0.254776 0.283018 -0.197502
-0.242437 0.308432 -0.229071
-0.275809 0.290024 -0.196172
0.335053 -0.254274 0.001157
0.235463 0.081686 0.120574
-0.267793 0.062176 0.265285
0.084723 -0.380519 -0.166107
0.075129 -0.371653 -0.146127
-0.250374 0.301927 -0.222263
-0.276424 0.335579 -0.194357
-0.208228 -0.206864 -0.090134
-0.241868 -0.190112 -0.089122
-0.226260 -0.208226 -0.105380
0.366777 -0.343251 0.164718
0.409709 -0.337170 0.172700
-0.041336 0.387024 -0.059517
-0.076408 0.345836 -0.047183
0.079606 -0.445137 -0.129808
0.079515 -0.430733 -0.162577
-0.321719 0.249552 -0.262519
-0.332214 0.241176 -0.259043
-0.286169 0.269395 -0.258229
-0.269378 0.317890 -0.223031
-0.019751 0.351507 -0.049843
-0.061720 0.380779 -0.050269
0.155834 0.029593 0.228820
0.317564 -0.212974 0.221919
-0.321921 0.259068 -0.228166
0.057157 0.093488 -0.045948
0.077853 -0.351670 -0.140539
0.101419 0.086201 -0.019094
-0.066856 0.383581 -0.054735
0.335468 -0.018876 0.017113
0.304645 -0.014934 -0.016911
0.156500 0.051493 0.227043
0.178002 0.013021 0.230391
-0.300054 0.289999 -0.095382
0.098200 -0.361023 -0.120100
-0.298796 0.302242 -0.047240
-0.273861 0.332792 -0.078809
0.154167 -0.068773 0.312159
-0.321241 0.311555 -0.086707
-0.335258 0.326534 -0.077695
-0.316030 0.328658 -0.067903
-0.380072 0.236120 0.136212
-0.295632 0.323097 -0.113844
-0.080122 0.356495 -0.075962
-0.071848 0.369263 -0.083868
-0.091181 0.349009 -0.074894
-0.247066 0.248950 0.098633
-0.261088 0.261693 0.105061
-0.223790 0.258576 0.105997
0.105090 -0.366283 -0.153637
0.101362 -0.378196 -0.162366
0.081308 -0.412135 -0.124423
-0.157239 0.152544 0.098126
-0.179037 0.104990 0.135361
-0.151405 0.122584 0.135025
-0.278157 0.248211 -0.083809
-0.251985 0.243024 -0.101659
0.303075 -0.168808 0.246422
0.337935 -0.093735 0.245787
0.287455 -0.126642 0.249272
0.318423 -0.105494 0.221695
0.063365 -0.355430 -0.131381
0.080596 -0.377328 -0.152315
0.100441 -0.366518 -0.141604
0.307959 -0.185881 -0.063639
0.315668 -0.195712 -0.054682
-0.418527 0.084769 0.183804
-0.432679 0.047553 0.165219
-0.464392 0.040122 0.187669
0.373220 -0.309267 0.178248
-0.452416 0.071856 0.181362
-0.060093 0.411620 -0.044512
-0.060890 0.405804 -0.056404
-0.067796 0.427404 -0.051404
0.054299 0.098195 0.101320
-0.419372 -0.111734 0.147450
-0.422731 -0.115714 0.158068
-0.419752 -0.122717 0.120091
0.324603 -0.190337 0.199556
0.339413 -0.157862 0.177904
-0.241606 -0.079042 0.267285
-0.225698 -0.037717 0.257567
-0.209860 -0.045217 0.290549
-0.156362 0.109445 0.137838
-0.134398 0.123352 0.126543
0.327122 0.002007 0.127351
0.312711 -0.045807 0.097750
0.330705 -0.036323 0.111250
0.291448 -0.140135 -0.106107
0.313249 -0.153305 -0.091830
0.302733 -0.176314 -0.076745
-0.008644 0.437761 -0.122126
0.008102 0.428858 -0.141171
0.002159 0.435705 -0.113363
0.340803 -0.043765 0.113449
0.306041 -0.283588 0.220904
0.320402 -0.289520 0.225024
0.316683 -0.282576 0.237651
0.187364 -0.123946 0.316382
0.217650 -0.161824 0.297963
0.097125 -0.391345 -0.145602
0.093868 -0.365864 -0.171663
0.091469 -0.380835 -0.155691
-0.275433 0.316283 -0.158206
-0.264767 0.327756 -0.165035
-0.353327 0.366848 -0.258194
-0.375244 0.366644 -0.241009
-0.341622 0.372880 -0.247268
0.179889 0.106864 0.087466
0.171221 0.122008 0.063653
0.160261 0.130108 0.099761
-0.274213 0.067135 0.292296
-0.211639 -0.348735 0.242987
-0.231011 -0.365601 0.281346
0.293141 -0.173647 -0.099615
-0.154276 -0.272321 -0.077053
-0.123787 -0.248377 -0.080508
-0.112088 -0.246087 -0.081804
-0.114673 -0.250234 -0.055797
0.338188 -0.413164 0.091619
0.333775 -0.394280 0.064022
0.003732 0.458398 -0.120098
0.128608 -0.368448 -0.158973
0.109207 -0.367636 -0.146209
-0.276698 0.123888 0.242989
-0.075383 0.360443 -0.064188
0.261356 -0.248560 0.253820
0.279213 -0.241139 0.221149
0.125425 -0.372042 -0.142531
0.111063 -0.375948 -0.118106
-0.276825 0.123165 0.221342
0.449532 -0.325235 0.055163
0.106531 0.051425 0.241129
-0.347718 0.154282 -0.011788
0.156141 -0.103506 0.318300
-0.296816 0.216327 -0.102436
-0.318825 0.225150 -0.109000
-0.142167 -0.426228 0.246998
-0.144103 -0.432072 0.270468
-0.156540 -0.440219 0.262188
0.174637 -0.144857 0.340233
-0.437174 -0.097362 0.063322
-0.418319 -0.085659 0.094454
0.318672 -0.199959 0.232211
0.332798 -0.223425 0.225016
-0.237779 -0.186461 0.233574
-0.249292 0.095659 0.272776
-0.257747 0.117579 0.261853
-0.235708 -0.144208 0.275655
0.085248 -0.436563 -0.115804
0.091794 -0.428114 -0.102770
0.081050 -0.427474 -0.121577
-0.233504 -0.125089 0.261390
-0.342599 -0.106753 -0.066555
-0.319003 -0.111789 -0.067251
-0.342537 -0.116667 -0.096025
-0.471645 0.105646 0.128308
0.143198 -0.371983 -0.150378
0.151550 -0.361616 -0.140203
0.136894 -0.389046 -0.163716
-0.405197 -0.028301 0.113448
-0.381356 -0.029485 0.136205
0.440405 -0.321335 0.048117
-0.180677 -0.422220 -0.144929
-0.162972 -0.426626 -0.125087
-0.377499 -0.209208 0.130897
-0.367169 -0.215951 0.151842
0.127117 -0.190105 -0.183233
0.164910 -0.153219 -0.204357
0.151529 -0.176949 -0.191679
-0.282470 -0.086712 0.249056
-0.304745 -0.086933 0.266486
-0.260365 0.264850 -0.098632
0.037956 -0.451942 -0.138474
0.031799 -0.435513 -0.137414
0.039845 -0.460737 -0.122234
-0.078449 -0.262953 0.235926
0.151678 -0.354392 -0.155632
0.148329 -0.370200 -0.146974
0.160364 -0.334558 -0.154563
0.172744 -0.346383 -0.116445
0.153709 -0.358705 -0.135081
0.170171 -0.183130 -0.171450
0.148618 -0.195445 -0.208271
0.133161 -0.189581 -0.203226
-0.435536 0.272687 0.108997
-0.405687 0.225990 0.104353
0.231638 0.005105 0.196969
-0.263433 0.249332 -0.089018
-0.089063 -0.414050 0.019122
0.209883 -0.406838 -0.062582
-0.043309 0.291678 -0.021850
0.015870 -0.016395 -0.112929
0.002216 -0.022935 -0.129204
0.010698 -0.025212 -0.151493
0.165007 -0.119015 -0.162998
0.156038 -0.130538 -0.174811
0.151190 -0.148651 -0.179265
0.165618 -0.226314 -0.183761
0.156308 -0.208224 -0.173620
-0.272577 0.084155 0.270490
0.101238 -0.377659 0.299645
0.064658 -0.064701 0.276150
0.040628 -0.056251 0.251203
-0.356133 0.039135 -0.027436
-0.360131 0.051672 -0.021949
0.166893 -0.371430 -0.168759
0.174163 -0.365173 -0.146390
0.191407 -0.363645 -0.136066
0.087453 -0.124504 -0.194717
0.079317 -0.119055 -0.209644
0.087038 -0.088537 -0.208785
0.232624 -0.412103 -0.046126
0.197741 -0.177476 -0.137029
0.189274 -0.167226 -0.170034
0.207959 -0.181389 -0.163544
0.074648 -0.097274 0.335249
0.068064 -0.104121 0.331810
-0.172097 0.056230 0.213877
0.093771 -0.163760 0.332660
0.074159 -0.164463 0.342293
0.105163 -0.179633 0.347602
-0.280733 0.269217 0.219001
-0.228669 0.253293 0.202567
-0.281734 0.257334 0.200044
-0.273430 -0.228277 -0.084375
-0.249717 -0.218973 -0.060137
-0.249491 -0.247758 -0.058057
0.256832 0.031862 0.200438
0.440827 -0.267647 0.051154
0.075494 -0.101062 -0.195588
0.302230 -0.208249 0.250060
0.296845 -0.221804 0.260282
0.298244 -0.211703 0.248429
0.180586 0.015476 -0.101740
0.184200 0.014659 -0.070091
0.188560 0.029078 -0.078529
0.030461 -0.274684 -0.203236
0.002071 -0.266056 -0.196498
0.257942 -0.143836 -0.103098
0.265588 -0.157954 -0.141815
0.225138 -0.135404 -0.158835
0.270949 -0.125198 -0.134398
-0.279223 0.313910 -0.235699
-0.399353 0.189033 0.214753
-0.406843 0.211530 0.194472
-0.411594 0.198211 0.223225
-0.301952 0.096248 0.294835
-0.283485 0.083534 0.298431
-0.303129 0.076989 0.302333
-0.048961 0.099958 0.140469
-0.049943 0.073401 0.154382
-0.027676 0.290849 -0.076944
-0.039372 0.280780 -0.058942
-0.355207 0.283189 -0.053005
-0.346545 0.299248 -0.039534
-0.318584 0.318060 -0.059522
-0.426013 -0.134556 -0.024764
-0.408657 -0.113745 0.008692
-0.404900 -0.105557 0.010350
-0.387736 -0.086440 -0.038780
-0.128500 0.089226 -0.011529
-0.135340 0.095757 0.001184
-0.135612 0.110838 0.011723
0.010299 0.264667 -0.040858
-0.413388 0.239242 0.082314
-0.282022 0.241758 0.200293
0.241143 -0.297790 0.251753
0.234266 -0.315934 0.248257
0.394892 -0.295268 0.184718
0.379224 -0.264029 0.174201
0.423295 -0.274342 0.161591
-0.114686 -0.384982 -0.108235
0.103163 -0.037291 0.266271
0.123761 -0.049605 0.266378
0.199853 0.084517 -0.009269
0.223378 0.089080 -0.024189
-0.106143 -0.285750 -0.059438
0.360547 -0.235201 0.168774
0.347861 -0.250777 0.163814
0.352859 -0.224906 0.152930
-0.175065 -0.441035 0.282791
-0.223603 -0.418624 0.192087
-0.227390 -0.426285 0.224687
-0.217599 -0.410519 0.206815
-0.134675 0.095865 -0.041660
-0.146228 0.096728 -0.014701
-0.122851 0.081217 -0.050167
-0.295270 0.079767 0.302313
0.314228 -0.162966 -0.037716
0.323553 -0.174543 -0.038351
-0.116419 0.097709 -0.048650
-0.122029 0.050038 -0.068192
-0.132889 0.042607 -0.061962
0.269404 -0.101878 -0.106031
0.282127 -0.115004 -0.130937
0.237125 -0.108374 -0.141854
-0.141127 -0.396733 -0.055708
-0.321989 0.301031 -0.069109
0.272034 -0.130386 -0.097909
0.217216 -0.361449 -0.132221
0.178432 -0.374204 -0.128495
0.202798 -0.384142 -0.124721
-0.424416 0.220292 0.086736
0.129675 -0.339320 -0.163037
0.096648 -0.349269 -0.163104
0.135951 -0.346537 -0.134237
-0.212471 -0.453851 0.227248
-0.228285 -0.427257 0.252120
-0.423403 0.134726 0.242762
-0.236760 -0.460289 0.258638
-0.122727 0.045032 -0.072188
-0.100043 0.048684 -0.076870
-0.104091 0.038182 -0.073470
-0.250025 -0.252918 -0.017845
0.294789 -0.411249 0.105424
0.320159 -0.423554 0.093013
-0.267200 0.225392 -0.060312
-0.275252 0.198275 -0.079348
-0.290408 0.207352 -0.090930
0.253469 -0.165025 0.298072
-0.193299 -0.182709 -0.117768
-0.186923 -0.163697 -0.089431
-0.163704 -0.220661 -0.087667
0.362694 -0.084009 0.113679
0.347814 -0.073603 0.122585
0.203348 -0.179086 -0.161075
0.192262 -0.171503 -0.147210
0.211895 -0.180111 -0.177852
0.225894 -0.145860 0.267026
0.105949 -0.373708 -0.159877
0.096063 -0.347454 -0.153348
-0.369466 -0.078823 -0.036014
-0.037293 0.089976 0.149632
0.220655 -0.321538 -0.148309
0.221892 -0.344567 -0.141073
0.201531 -0.369182 -0.143984
-0.300479 0.032859 0.304110
-0.311399 0.022135 0.301195
-0.288954 0.036708 0.294594
0.288993 -0.274843 0.206724
-0.367130 0.006018 0.011400
-0.355305 0.006808 -0.001295
-0.389778 -0.006595 -0.013887
0.025510 0.359821 -0.075805
-0.312467 -0.410396 -0.007769
-0.305470 -0.413959 0.005545
-0.325210 -0.430415 -0.002971
-0.374762 -0.015853 0.117875
-0.386549 -0.015183 0.123563
-0.402700 -0.016089 0.117472
-0.414794 0.081847 0.205143
-0.433419 0.094706 0.205862
-0.360867 0.008253 -0.014181
-0.384285 -0.013276 -0.018947
0.233211 -0.404018 -0.041806
0.202102 -0.408162 -0.029391
-0.148842 0.278745 -0.044926
-0.160529 0.292315 -0.051388
-0.165121 0.275924 -0.047723
-0.143017 0.291913 -0.060994
-0.125175 -0.433204 0.164070
-0.123031 -0.436917 0.193296
-0.112204 -0.448705 0.191750
0.177890 -0.350808 0.259471
-0.183412 -0.199697 0.254353
-0.205393 -0.206186 0.263359
-0.248443 -0.224267 0.258718
0.223963 -0.225954 -0.167432
0.185139 -0.262668 -0.154729
0.213309 -0.224984 -0.148231
-0.354908 0.027338 -0.019028
-0.370182 0.012066 -0.025792
-0.364343 0.028406 0.006645
-0.423336 0.221568 0.070697
-0.425431 0.189089 0.071682
-0.417735 0.190434 0.067222
-0.347670 -0.430253 0.012158
-0.219594 -0.167842 0.264138
-0.123352 0.227083 -0.029805
0.221326 -0.388297 0.284580
0.201391 -0.368067 0.264508
-0.133998 0.244799 -0.000571
-0.115014 -0.411667 0.189647
-0.063364 -0.292629 -0.070678
-0.090817 -0.311855 -0.070993
-0.100996 -0.307539 -0.089981
-0.440081 0.056941 0.211377
-0.428836 0.069585 0.231137
-0.452634 0.099211 0.213923
-0.028019 0.287791 0.003462
-0.225865 -0.451067 0.262390
-0.232532 -0.420207 0.273522
-0.219568 0.171454 0.191600
-0.239542 0.167500 0.189056
-0.122731 0.243917 -0.065825
-0.128739 0.245504 -0.029935
-0.118860 0.242899 -0.023479
0.040215 0.110357 0.022019
-0.173080 -0.470194 -0.091181
-0.163165 -0.441644 -0.101326
-0.161638 -0.415318 -0.085110
-0.179946 -0.439486 -0.091685
0.163787 0.110698 0.025097
0.187015 0.089999 -0.007990
0.161086 0.130530 0.021659
-0.029626 0.280789 -0.007888
-0.192802 -0.118669 0.302741
-0.239955 -0.094590 0.291383
-0.229535 -0.110885 0.263016
0.275447 -0.095839 0.238607
0.274328 -0.061852 0.251066
0.234252 -0.001247 -0.099013
0.231064 -0.022618 -0.092231
0.236068 -0.031957 -0.087495
0.240501 -0.237219 -0.134319
0.205157 -0.247036 -0.167092
0.236145 -0.233786 -0.137537
0.231836 -0.255680 -0.168767
0.486592 -0.302335 0.108465
0.453190 -0.291239 0.116234
0.458578 -0.285003 0.116850
0.260767 -0.001244 -0.068744
0.265615 -0.014212 -0.057960
0.274980 0.021352 -0.053818
-0.151584 0.082133 -0.011607
-0.112111 0.113515 0.022043
-0.211218 -0.423610 0.273946
-0.227598 -0.424278 0.260114
-0.220608 -0.437033 0.252685
0.309018 -0.163110 0.227561
0.300781 -0.143709 0.225691
0.290751 -0.171607 0.246907
0.283962 0.065081 -0.033273
0.277787 0.029890 -0.007806
0.261885 -0.007991 -0.024133
-0.247755 -0.032878 0.252168
-0.222095 -0.023786 0.245240
-0.230729 -0.030321 0.242824
-0.226892 0.173463 0.190441
-0.195877 0.172494 0.150331
-0.215352 0.147282 0.191087
-0.187212 0.159881 0.149271
-0.151242 -0.371557 -0.078239
-0.149503 -0.362924 -0.077514
-0.140081 -0.342531 -0.070763
0.209703 -0.113045 -0.166178
0.182822 -0.112498 -0.157221
0.201355 -0.088110 -0.147189
0.206271 -0.091058 -0.153527
0.216257 -0.127417 -0.157413
-0.130987 0.041129 -0.078420
-0.104279 0.036132 -0.074230
-0.102187 0.011300 -0.104339
-0.092516 0.043032 -0.069289
-0.105429 0.007354 -0.076876
-0.375837 -0.200056 0.055250
-0.397324 -0.210762 0.053046
-0.370664 -0.190597 0.025748
-0.374452 -0.221068 0.047728
0.158665 0.108391 0.010987
0.152607 0.107668 0.028977
-0.008119 -0.014356 -0.104410
-0.025497 0.000864 -0.127137
0.012850 -0.023656 -0.112256
-0.076682 0.052866 -0.050519
-0.097166 0.062725 -0.039809
-0.098576 0.078244 -0.061228
-0.107246 0.055784 -0.063290
-0.127979 0.058155 -0.038732
-0.074192 -0.375314 0.309222
-0.086912 -0.404744 0.292702
-0.071667 -0.388259 0.322730
0.021381 -0.403214 0.185395
0.015143 -0.397911 0.222241
-0.462288 0.132448 0.088590
-0.441746 0.133429 0.088500
0.015559 -0.419056 0.216881
-0.115576 0.024786 -0.075922
-0.089926 0.036223 -0.071540
-0.146580 0.290924 -0.054402
-0.010842 0.004809 -0.110464
0.008218 -0.021705 -0.109882
-0.072107 0.029801 0.194207
0.100025 0.090956 0.011180
0.096685 0.113754 -0.002905
0.111802 0.109847 0.013100
0.049690 0.046133 -0.099623
0.004609 0.049507 -0.082744
0.002945 0.050411 -0.045054
-0.142699 0.002476 -0.077701
-0.107775 0.016407 -0.073127
-0.110300 0.040067 -0.063850
-0.126248 0.046928 -0.106857
0.170936 -0.030331 -0.086698
0.204161 -0.033289 -0.094787
0.396282 -0.295534 -0.028316
0.372782 -0.280845 -0.013710
0.401088 -0.265415 -0.025550
0.219711 -0.253713 -0.140344
0.225104 -0.264406 -0.144226
0.238694 -0.268634 -0.137174
-0.086853 0.010920 -0.122624
-0.113639 -0.005631 -0.078055
-0.100426 0.015041 -0.103229
-0.210051 0.066108 -0.044600
-0.222539 0.070133 -0.027010
-0.222598 0.081416 -0.029236
0.190469 0.098780 -0.001170
0.147016 0.111338 -0.016619
0.169518 0.108523 0.003091
0.228336 -0.281665 -0.148858
0.219881 -0.302677 -0.125833
0.231641 -0.301989 -0.129311
-0.423370 0.158960 0.036096
-0.419031 0.190737 0.056040
0.212323 -0.034592 -0.090066
-0.140075 0.203873 -0.015992
-0.375847 -0.201324 0.029667
-0.214072 0.120355 0.222236
0.164938 0.087807 0.012878
-0.146695 -0.438551 -0.152710
0.242209 -0.204089 -0.125059
-0.195101 0.098189 0.181477
-0.210660 -0.318940 0.210260
-0.170550 -0.329067 0.243407
-0.204328 -0.345221 0.226488
-0.065776 -0.309238 -0.168298
-0.072407 -0.315401 -0.181055
-0.032707 -0.306285 -0.176512
0.387584 -0.219085 0.035557
0.410981 -0.231826 0.036971
0.393490 -0.200026 0.047773
0.244246 -0.307467 -0.123161
0.236481 -0.350227 -0.120083
-0.232313 0.073997 0.214851
-0.192293 0.139986 0.246297
-0.207459 0.103264 0.219312
-0.132767 -0.397957 -0.148526
-0.126995 -0.425408 -0.124078
-0.109719 -0.382732 -0.121966
-0.172347 -0.221334 -0.089507
-0.175679 -0.210351 -0.069508
-0.172445 -0.200920 -0.084574
-0.429554 0.037440 0.045937
-0.444354 0.031712 0.015924
0.110230 -0.293913 0.317487
0.121126 -0.266248 0.325365
0.106205 -0.266451 0.290416
-0.388876 0.023508 0.045117
-0.400056 0.001578 0.053396
-0.279753 0.018464 0.248221
-0.307665 0.023917 0.257163
0.037120 -0.397106 -0.041814
0.021727 -0.396023 -0.039310
0.080300 0.085075 0.217680
0.075820 0.087694 0.192598
0.048039 0.095753 -0.047987
0.034395 0.077204 -0.045354
0.089187 0.126660 0.069573
0.105285 0.145863 0.081033
-0.256886 0.248226 -0.129564
-0.296855 0.221750 -0.128057
-0.002621 -0.090201 -0.172565
0.031209 -0.088703 -0.168120
0.026657 -0.072294 -0.172933
0.029515 0.084997 -0.056710
-0.244671 0.235588 -0.078722
-0.277073 0.217261 -0.064943
0.019547 -0.034762 -0.193698
-0.310835 -0.211489 -0.034225
-0.330997 -0.206439 -0.034010
0.024890 0.041835 -0.044885
0.027854 0.046465 -0.081291
0.046729 0.051684 -0.085238
0.216896 -0.308287 -0.153673
0.218224 -0.319795 -0.141728
0.236563 -0.312219 -0.136301
0.045880 0.045041 -0.084334
-0.200699 -0.333195 0.110420
-0.209637 -0.329646 0.138879
0.049950 0.090436 -0.066499
0.307526 -0.079656 -0.071779
0.320424 -0.092983 -0.073521
0.311688 -0.119361 -0.086239
-0.092112 -0.383877 0.296963
0.229084 -0.209439 -0.149724
0.251946 -0.186142 -0.132447
0.239012 -0.195230 -0.136606
0.165155 -0.224655 -0.202974
-0.247390 -0.424661 0.283147
-0.263152 -0.426662 0.291994
-0.098775 0.039037 -0.082147
-0.089710 0.056469 -0.063574
0.007709 0.068573 -0.054520
0.015895 0.101088 -0.061426
-0.297117 0.135995 0.289893
-0.291783 -0.436165 -0.031177
-0.267650 -0.417314 -0.028962
-0.326368 -0.427023 -0.034423
-0.282049 -0.422615 -0.008987
-0.284469 -0.399387 -0.023657
-0.308900 -0.209222 -0.034386
-0.293988 -0.244379 -0.039543
-0.211513 0.084391 0.226874
-0.428263 0.093061 0.041729
0.008251 0.109125 -0.003815
-0.000480 0.109541 -0.008106
-0.040588 0.040958 -0.056652
-0.003106 0.053852 -0.065877
-0.443990 0.087745 0.058855
-0.189568 0.317504 -0.009365
-0.203609 0.293782 -0.017766
-0.221862 0.317016 -0.013279
-0.441981 0.098034 0.088338
-0.468546 0.081611 0.081044
-0.363178 -0.012273 0.199051
-0.361454 0.017559 0.219234
-0.365360 -0.007825 0.202273
0.173517 -0.432144 0.242279
0.163630 -0.426640 0.221189
0.171650 -0.442135 0.242134
0.242764 -0.165205 -0.149157
-0.418089 -0.020954 0.108960
-0.407376 -0.035409 0.118484
-0.365254 -0.110943 -0.037554
-0.383264 -0.124955 -0.040689
-0.360956 -0.133828 -0.015445
-0.336317 0.286059 0.039299
-0.301023 0.282053 -0.002709
-0.285062 0.235334 0.022634
-0.291961 0.263612 0.017126
-0.225742 0.081063 0.217205
-0.104490 -0.046850 -0.136047
-0.077586 -0.043187 -0.120783
-0.352707 0.249986 0.214220
-0.379500 0.221071 0.240881
0.279946 -0.409178 -0.003660
-0.136679 0.351242 -0.034253
-0.132511 0.366141 -0.006475
-0.115280 0.376964 -0.012008
-0.312878 0.252858 0.001194
-0.097605 0.247301 0.028936
0.406691 -0.266571 0.015301
0.398370 -0.281080 -0.003986
0.387295 -0.266678 -0.000418
-0.068553 -0.037480 -0.101071
-0.076457 -0.021967 -0.124513
-0.052273 -0.018531 -0.109575
0.384729 -0.279981 0.024129
-0.217789 -0.251687 -0.049880
-0.222087 -0.299079 -0.031386
-0.214876 -0.271760 -0.044764
-0.217104 -0.220115 0.261967
-0.078566 -0.060369 -0.139285
-0.064327 -0.421191 -0.056298
-0.092231 -0.396184 -0.081260
-0.055100 -0.413989 -0.088337
-0.208584 -0.164828 0.252696
-0.243339 -0.167742 0.246393
-0.211341 -0.175519 0.278653
-0.219899 -0.165323 0.253839
0.270583 0.006345 -0.021958
-0.002700 -0.086093 -0.176937
-0.008445 -0.065669 -0.157698
-0.277732 0.286343 -0.148350
0.223070 -0.116096 -0.137877
0.206993 -0.146117 -0.141475
-0.012928 0.107272 -0.017194
-0.006520 0.123677 0.015178
-0.329719 0.052146 -0.023678
-0.342645 0.049040 -0.043892
-0.323670 0.035650 -0.019466
-0.463623 0.078754 0.084722
0.220329 -0.128705 -0.120859
0.236121 -0.089166 -0.128111
-0.245315 0.214862 -0.101043
-0.278328 0.232502 -0.101791
-0.218441 -0.397289 -0.055638
-0.217072 -0.404281 -0.018043
-0.250368 -0.402318 -0.055833
-0.251449 -0.233687 -0.076735
-0.216319 -0.212609 -0.072828
-0.224148 -0.216654 -0.093509
-0.426875 0.198822 0.089386
-0.425829 0.215202 0.068949
-0.429448 0.232218 0.073026
0.029876 -0.027704 -0.127130
0.056263 -0.009548 -0.122779
-0.318081 0.074443 -0.045613
-0.323844 0.059628 -0.047130
-0.295709 0.069165 -0.040065
0.283061 -0.400537 -0.003151
0.278840 -0.384469 0.002635
-0.377433 -0.049690 -0.012199
-0.395476 -0.056380 -0.012369
-0.373291 -0.048834 -0.006537
-0.327718 0.316585 -0.114136
-0.336635 0.297588 -0.100566
-0.333058 0.325615 -0.097078
-0.016491 0.076674 0.008298
-0.013541 0.093618 -0.019574
-0.007446 0.089258 -0.013816
-0.091367 0.053189 -0.067047
-0.119544 0.051092 -0.052899
-0.373220 -0.064184 -0.030239
-0.385501 -0.077202 -0.003079
0.137484 -0.016625 0.271300
0.116574 0.013683 0.224254
0.114175 0.011177 0.266376
0.227971 -0.377582 0.256184
-0.417288 0.201826 0.213269
0.276514 -0.237855 0.255700
0.432287 -0.353460 0.069108
0.430882 -0.367780 0.073748
0.418287 -0.366864 0.048549
-0.062350 -0.092855 -0.140331
-0.094227 -0.105468 -0.130291
-0.081419 -0.089368 -0.127257
0.014830 -0.405991 0.030044
0.047494 -0.386616 0.152050
-0.226331 -0.262491 -0.056136
-0.211336 -0.283011 -0.017113
-0.212183 -0.262359 -0.054191
-0.310230 0.317287 -0.337953
-0.285646 0.325667 -0.339573
-0.289035 0.328952 -0.326423
-0.291460 0.259653 -0.304968
-0.295405 0.296276 -0.310282
-0.284023 0.296753 -0.286746
0.149339 -0.155359 -0.199638
0.116942 -0.181717 -0.192371
0.161652 -0.105491 0.339944
0.158518 -0.094600 0.324956
0.163922 -0.121102 0.338325
0.137409 -0.141101 -0.162916
0.163865 -0.164152 -0.201843
0.047932 -0.056614 -0.136516
-0.266752 0.246877 0.172142
-0.270208 0.255537 0.181382
-0.263495 0.272878 0.156480
-0.187089 -0.077728 -0.152707
-0.177945 -0.076698 -0.119054
-0.183039 -0.095837 -0.106189
0.284246 0.038733 -0.023712
0.251543 0.028631 -0.000964
0.289654 0.023621 -0.024010
-0.173858 0.089876 0.179030
-0.171939 0.096268 0.177220
0.259151 -0.228160 0.261319
0.028532 0.103594 0.021601
-0.019913 0.093895 0.019095
0.079988 -0.363555 0.312251
0.258726 -0.192759 -0.121347
0.291039 -0.225889 -0.109801
0.247881 -0.195817 -0.123467
-0.259472 0.212097 -0.024039
0.294583 -0.408858 0.002484
0.273564 -0.398343 -0.018520
0.254840 -0.428705 -0.012043
0.214263 -0.221859 0.283493
-0.180847 -0.399540 -0.037841
-0.182243 -0.410101 -0.046740
0.347457 -0.410263 0.108688
-0.198972 -0.407121 -0.036199
-0.276270 -0.373376 0.002374
-0.272554 -0.398430 0.002159
-0.271045 -0.394317 -0.005455
-0.355041 0.241362 0.026814
0.087151 -0.208228 0.354798
0.101786 -0.238015 0.360208
0.067739 -0.215487 0.358442
0.211822 -0.252927 0.289333
0.066862 0.035652 0.240931
0.056489 0.038888 0.253574
-0.451941 0.078457 0.238046
-0.240163 -0.459299 0.186155
-0.243917 -0.448932 0.182865
-0.260604 -0.444781 0.182147
-0.032129 -0.195684 0.297835
-0.221460 -0.365078 0.226609
-0.234966 -0.356080 0.250320
-0.248935 -0.375207 0.236993
-0.241435 -0.339561 0.217265
-0.232872 -0.351278 0.240326
-0.039228 -0.245199 0.296365
-0.026353 -0.209437 0.330869
0.048919 -0.355022 -0.169491
0.046076 -0.388546 -0.164811
0.057035 -0.352102 -0.170697
0.278672 -0.226139 -0.119675
0.277419 -0.196972 -0.142986
-0.396163 -0.197478 0.126001
-0.390062 -0.176923 0.104043
0.293402 -0.198741 -0.087186
0.070045 -0.378753 -0.161501
-0.384857 -0.163798 0.001197
-0.381397 -0.170103 -0.024187
-0.356796 -0.176417 -0.003618
-0.385417 -0.175260 0.096896
-0.442559 -0.170552 0.097133
0.328226 -0.086330 0.199667
0.300345 -0.067526 0.180107
0.094378 -0.407675 0.107079
0.079963 -0.395262 0.116267
0.079764 -0.410456 0.099283
-0.176279 0.099262 0.174007
-0.164274 0.130310 0.171343
0.078511 -0.419512 0.099585
0.070345 -0.403432 0.120932
0.305846 -0.428048 0.088554
0.310614 -0.422478 0.086973
0.295343 -0.440171 0.119065
0.177249 -0.377330 0.276880
0.160527 -0.353690 0.265311
0.227739 -0.369359 0.274150
0.259079 -0.309879 -0.059724
0.301070 -0.081135 0.205670
-0.049578 0.032365 -0.060370
-0.051957 0.019021 -0.067043
-0.052651 0.045153 -0.075530
0.277905 -0.396817 0.007495
0.280631 -0.410749 -0.002535
-0.071926 0.038330 -0.057301
0.209219 -0.272884 -0.152042
0.199565 -0.250904 -0.167032
0.205749 -0.256378 -0.134126
0.115253 0.120294 -0.033765
0.098449 0.111132 -0.013440
0.123521 0.084999 -0.020862
-0.276104 -0.282024 -0.008724
-0.252226 -0.272534 -0.025932
-0.276526 -0.286498 -0.020343
0.115393 0.115496 0.012261
0.332504 -0.175250 -0.072215
-0.002942 -0.366600 -0.144474
-0.013554 -0.358263 -0.146696
-0.023818 -0.331812 -0.157302
-0.200446 -0.350180 -0.020115
-0.219018 -0.358667 -0.022975
-0.198519 -0.336934 -0.036739
0.040676 -0.042391 0.278433
0.021399 -0.056440 0.259049
0.027664 -0.054858 0.270773
-0.157331 0.243538 -0.018218
-0.190789 0.281358 -0.030145
-0.003451 -0.348768 -0.173685
0.212781 -0.402632 0.243171
0.171005 -0.379881 0.264713
0.208499 -0.271127 -0.167355
-0.218554 -0.354234 0.209697
-0.429939 0.188998 0.057836
-0.418124 0.194573 0.078712
0.120534 -0.021563 0.231980
0.121448 -0.054409 0.269356
0.009402 -0.049314 0.281669
0.357854 -0.257210 0.005520
0.337151 -0.238335 -0.026865
0.200642 -0.147646 0.311364
0.191394 -0.110172 0.307856
0.159921 -0.127782 0.299756
-0.000951 0.364092 -0.138532
0.013176 0.368347 -0.135171
0.004691 0.342349 -0.125615
0.042843 -0.085363 -0.148001
0.065829 -0.077699 -0.201695
0.024429 -0.091894 -0.189530
0.045989 -0.099030 -0.195214
-0.261944 -0.203944 -0.086273
-0.256587 -0.230026 -0.063040
-0.275404 -0.220491 -0.068697
-0.261911 -0.213446 -0.072920
-0.261767 -0.216940 -0.075946
-0.021569 0.324853 -0.040471
0.343626 -0.273966 0.007809
0.119342 -0.416440 0.000384
0.317547 -0.093581 0.232704
0.302718 -0.078883 0.237054
0.301995 -0.108466 0.188717
0.239787 -0.131410 -0.146643
-0.244904 -0.241779 -0.062125
-0.256264 -0.237599 -0.057447
0.264496 -0.157244 0.288143
-0.249742 -0.250156 -0.064048
-0.271818 -0.252952 -0.034679
-0.171107 0.089477 0.096565
-0.267291 0.105762 -0.046386
-0.277604 0.112982 -0.061527
-0.258660 0.133866 -0.044132
0.179180 -0.310702 0.258891
0.029573 -0.211810 0.366774
0.043887 -0.224390 0.336113
0.010489 -0.244453 0.320398
-0.289632 0.220745 -0.145940
0.183535 -0.098466 -0.143860
0.188202 -0.100788 -0.138482
0.176288 -0.080102 -0.147660
-0.288364 0.234640 -0.156068
-0.292346 0.237494 -0.158203
-0.079307 -0.383723 -0.121994
-0.111037 -0.361525 -0.124384
-0.313610 0.083059 -0.053461
-0.325581 0.090269 -0.027683
-0.304206 0.079139 -0.050632
0.022794 -0.016219 0.265541
0.035120 -0.046307 0.271127
0.251634 -0.155645 0.290752
-0.266172 -0.298797 0.040568
-0.241612 -0.300460 0.040436
-0.232097 -0.303595 0.029873
0.200220 0.094496 -0.038838
0.198809 0.096669 -0.022664
0.182307 0.083349 -0.017772
-0.212636 -0.190202 0.231262
-0.203270 -0.218047 0.244976
0.348997 -0.283340 0.164850
0.352122 -0.311838 0.185521
0.183667 0.097821 -0.022998
0.202674 0.074821 -0.054248
-0.203069 -0.333759 0.156549
0.219003 -0.124000 -0.118317
-0.235613 -0.142636 0.256690
-0.233661 -0.155047 0.269483
-0.332355 0.092729 -0.044597
-0.322231 0.106978 -0.039516
0.161577 0.018765 0.219071
-0.375292 -0.005049 -0.046630
-0.376331 -0.029641 -0.049261
-0.081310 -0.430742 0.283795
-0.070269 -0.431241 0.258560
-0.079178 -0.441040 0.276779
-0.190604 -0.375475 0.237370
-0.178785 -0.367632 0.251015
-0.207805 -0.363877 0.243704
0.255613 0.047465 -0.014160
-0.172864 0.312824 0.010186
-0.200126 0.361668 0.001646
-0.157947 0.306732 0.001304
-0.206299 -0.265960 -0.031638
-0.201651 -0.275017 -0.023617
-0.209393 -0.260481 -0.055924
-0.175863 0.325159 -0.018700
-0.181333 0.319888 0.020349
-0.174612 0.314289 0.012345
-0.200872 -0.270970 -0.028852
-0.214480 -0.269509 -0.050669
-0.179951 -0.332906 0.231252
-0.180425 -0.334909 0.210833
0.269223 -0.042505 -0.048451
-0.075177 -0.022544 -0.101427
-0.454650 0.047864 0.254812
-0.440249 0.051171 0.241440
0.202683 -0.193093 0.296137
0.228013 -0.169784 0.306476
0.218314 -0.158513 0.327691
0.289695 -0.040550 -0.095793
0.255222 -0.024333 -0.062795
0.208197 -0.015340 -0.082239
0.222180 -0.017927 -0.084310
-0.250224 0.227860 0.210557
-0.228799 0.248843 0.003538
-0.260857 0.231513 -0.205511
-0.268461 0.239445 -0.169574
-0.294045 0.247112 -0.178886
0.220596 -0.027770 -0.091555
-0.381024 -0.044057 -0.043125
-0.362567 -0.032459 -0.055139
0.323894 -0.398291 0.008574
0.298587 -0.403512 0.006846
0.320214 -0.384830 0.010647
-0.213846 -0.045160 0.250982
-0.214200 -0.043770 0.237289
-0.189606 -0.035308 0.268617
-0.358381 0.135462 -0.023968
-0.371211 0.143940 -0.039770
-0.379942 0.147409 -0.025554
-0.196347 0.278121 -0.018862
-0.298223 -0.408413 -0.005722
-0.283940 -0.408252 -0.001107
-0.330497 -0.434712 -0.018329
0.003066 0.102997 0.021954
0.159256 -0.222639 0.314504
0.188097 -0.206380 0.334304
0.187063 -0.213550 0.327559
-0.403584 -0.091546 -0.008437
-0.412553 -0.120823 -0.004688
0.225545 -0.417978 -0.087848
0.204081 -0.381871 -0.079187
-0.275782 0.354638 -0.282697
-0.293231 0.332478 -0.286985
-0.211355 -0.007011 0.222773
-0.214364 0.006617 0.228986
0.189501 -0.114154 0.287336
0.194708 -0.121954 0.318923
-0.419645 -0.092015 -0.021691
-0.409106 -0.094599 0.014392
-0.263600 -0.381694 -0.024149
-0.216105 0.005921 0.223733
-0.210503 0.009463 0.200591
-0.015434 0.408150 -0.091682
-0.017262 0.423638 -0.090596
-0.024689 0.432640 -0.073123
0.070384 -0.445270 -0.132774
-0.447096 0.091692 0.162490
-0.412401 0.143948 0.162663
-0.447829 0.118474 0.183113
0.268470 -0.005403 0.204889
0.296933 -0.002897 0.178533
0.272481 -0.014994 0.208500
0.233438 -0.359793 -0.093723
0.239935 -0.391362 -0.127988
0.284124 -0.003786 0.186928
-0.206983 -0.383784 0.127404
-0.062939 -0.405322 0.208364
-0.067105 -0.403234 0.223386
-0.079034 -0.422212 0.205011
0.026132 0.343135 -0.091128
0.043335 0.361026 -0.093837
-0.303825 -0.431019 -0.026177
0.175305 0.094989 -0.034184
0.197791 0.077263 -0.017842
-0.149643 0.191354 0.012476
-0.157410 0.215571 0.013753
-0.152383 0.226913 0.051792
0.180558 0.093685 0.002157
0.309215 -0.139193 -0.092773
0.034860 0.349603 -0.089603
-0.425210 0.109964 0.191323
-0.351740 0.308436 -0.204954
-0.361840 0.341333 -0.185565
-0.350487 0.312372 -0.194899
-0.365871 0.078866 -0.021952
-0.359686 0.089812 -0.016303
-0.355212 0.082268 -0.039191
0.290986 -0.167103 -0.112032
0.314473 -0.160965 -0.106355
0.024333 0.365282 -0.080499
-0.355371 0.036047 -0.028529
-0.320907 0.014913 -0.034253
-0.309055 -0.088638 -0.089535
-0.285994 -0.095884 -0.081310
-0.306030 -0.093096 -0.084082
-0.279502 -0.404416 -0.033921
-0.255096 -0.414918 -0.028953
-0.247768 -0.426025 -0.044523
0.177588 -0.106163 -0.134601
0.172263 -0.069372 -0.144577
-0.354308 0.155661 0.283126
-0.354534 0.184501 0.312551
-0.128253 0.378031 0.009367
-0.095659 0.330548 0.013333
-0.112164 0.350021 -0.009585
-0.209288 -0.310045 0.068084
-0.231383 -0.303532 0.051392
0.000881 0.318269 -0.120863
-0.028157 0.326117 -0.080932
-0.022206 0.332515 -0.098349
0.269500 -0.030122 0.226633
0.243556 -0.000261 0.223290
0.268578 -0.021679 0.228360
0.232951 -0.072399 -0.111606
0.084151 -0.397314 0.279872
0.071384 -0.398600 0.267949
0.101380 -0.384817 0.266832
-0.311011 0.385788 -0.295234
-0.333363 0.385899 -0.282528
-0.108074 0.325000 -0.009867
-0.222201 -0.402461 0.110933
-0.259995 -0.418982 -0.038194
-0.247073 -0.411305 -0.044889
0.225350 0.045674 -0.059519
0.217408 0.055562 -0.073133
0.198224 0.052286 -0.052418
0.209033 -0.214404 0.276680
0.221943 -0.206929 0.309607
0.201232 -0.216046 0.301232
0.005639 0.370810 -0.125876
0.080887 -0.366002 0.311041
0.070885 -0.342447 0.290928
0.083700 -0.379292 0.271793
0.225629 0.031479 -0.046526
0.215463 0.067549 -0.056618
0.197200 0.049968 -0.058212
0.020765 0.322127 -0.061513
-0.003553 0.313695 -0.040732
0.305896 -0.198101 0.230887
0.118249 -0.425328 0.132917
0.109528 -0.424569 0.103415
0.093386 -0.093018 -0.182995
0.080305 -0.078659 -0.150906
0.112279 -0.078150 -0.155657
0.031730 0.309151 -0.067071
0.000092 0.315144 -0.088094
0.036878 0.338168 -0.075853
-0.197859 0.049284 0.170173
-0.233346 -0.234767 -0.075350
-0.226112 -0.241822 -0.080404
-0.233558 -0.222928 -0.077756
-0.339183 0.216315 -0.091263
-0.350223 0.241440 -0.096006
-0.328888 0.246856 -0.098967
-0.231132 0.121349 -0.031547
-0.217848 0.118221 -0.014915
-0.234115 0.111358 -0.002593
0.216938 -0.093237 0.298446
-0.437945 0.051078 0.126537
-0.437237 0.037341 0.127668
-0.440700 0.076081 0.109243
0.020650 -0.359391 0.313510
0.047838 -0.355865 0.289399
0.047897 -0.402866 0.286122
0.026611 -0.364924 0.283064
0.031339 -0.351179 0.284950
0.023893 -0.340619 0.292950
0.348160 -0.293988 -0.020377
0.358652 -0.296739 -0.031400
0.309629 -0.178186 -0.060986
0.416355 -0.284359 0.165199
0.424361 -0.315394 0.156448
0.435327 -0.298719 0.141139
0.218598 0.052172 -0.029521
-0.092827 -0.370709 -0.132254
-0.344191 -0.199705 -0.025048
-0.344074 -0.215310 -0.037347
0.413607 -0.276000 0.162479
0.417802 -0.299285 0.162089
0.267356 0.013677 0.197710
0.301694 -0.270416 -0.053802
0.297613 -0.108866 -0.092727
0.316984 -0.079979 -0.089530
0.291968 -0.095485 -0.079137
0.430008 -0.286590 0.172453
-0.316722 -0.030505 -0.077087
-0.311502 -0.049473 -0.062158
-0.233060 -0.341996 0.085021
-0.246388 -0.354226 0.094904
-0.231598 -0.232720 -0.048781
-0.231323 -0.221878 -0.086144
0.142125 -0.127702 -0.173425
-0.296451 0.344050 -0.235692
-0.278905 0.345238 -0.230768
-0.296105 0.382898 -0.251316
-0.245914 -0.241300 -0.098389
-0.237676 -0.209539 -0.076614
-0.280800 0.368007 -0.228009
-0.155263 0.006058 -0.103287
-0.328269 0.080980 -0.044010
-0.312428 0.056289 -0.043743
-0.192637 -0.023984 -0.130738
-0.146571 0.003984 -0.118519
-0.150037 -0.012198 -0.129731
0.239955 -0.089006 -0.138131
0.219569 -0.103138 -0.132336
-0.011709 -0.018977 0.246489
-0.044082 -0.032623 0.257689
-0.079062 -0.033233 0.252666
-0.308010 -0.223060 -0.040997
0.422215 -0.284928 0.163870
0.411971 -0.286377 0.171138
-0.098411 0.056376 -0.086673
-0.174834 0.059820 -0.083459
-0.132705 0.043027 -0.049239
-0.156499 0.044705 -0.067824
0.284964 0.024805 0.197613
0.292320 0.023399 0.183265
0.269319 0.022085 0.188881
0.340393 -0.356119 0.003981
0.352040 -0.372688 0.002116
0.281994 -0.080409 -0.104585
-0.076877 0.354818 -0.048596
-0.096534 0.381232 -0.071972
-0.286005 -0.425804 -0.028205
-0.286202 -0.406813 -0.025184
-0.324179 -0.118587 -0.057575
-0.350147 -0.143379 -0.067297
-0.069580 0.408806 -0.065359
-0.308189 -0.131133 -0.072577
-0.336776 -0.151653 -0.068389
-0.414872 0.178000 0.098822
-0.056371 -0.432380 0.294086
-0.044918 -0.433725 0.282328
-0.311884 -0.049356 -0.066313
0.265216 -0.258626 0.255900
0.276169 -0.268470 0.243099
0.290828 -0.278795 -0.089459
0.276754 -0.269302 -0.063713
-0.324851 -0.178723 -0.033232
-0.306475 -0.197706 -0.018685
-0.326570 -0.202988 -0.039244
-0.146355 0.065781 -0.051101
0.082470 -0.066769 -0.166253
0.076933 -0.073673 -0.202092
0.074903 -0.060171 -0.174158
-0.308364 -0.230609 -0.027436
-0.294190 -0.238866 -0.053747
-0.208661 -0.138690 0.273422
-0.202209 -0.125880 0.280015
-0.219359 -0.130263 0.284404
-0.295081 -0.206534 -0.048437
-0.301361 -0.218266 -0.045927
-0.322214 0.000948 -0.029150
-0.322372 -0.007228 -0.026892
0.327032 -0.272236 -0.049663
-0.412710 0.207934 0.074451
-0.312276 0.017569 -0.021465
-0.344993 0.013894 -0.016973
-0.327666 0.023806 -0.025215
-0.204673 0.263740 0.004330
-0.224567 0.231052 -0.010013
-0.206364 0.276431 -0.005244
-0.159998 -0.224128 -0.063245
-0.183951 -0.208412 -0.088720
-0.185259 -0.250238 -0.066235
-0.270836 -0.257883 -0.002843
-0.265059 -0.247253 -0.010913
-0.297639 -0.247038 -0.029034
-0.053362 0.365094 -0.103258
-0.046987 0.355118 -0.087537
-0.174156 -0.214606 -0.110662
-0.180139 -0.233351 -0.109103
-0.165425 -0.217093 -0.073295
-0.049149 0.052614 -0.053510
-0.047327 0.363804 -0.094526
-0.188951 0.196393 0.050761
-0.203286 0.181031 0.081696
-0.200231 0.172849 0.095177
-0.395227 -0.000251 0.131775
-0.019421 -0.423452 -0.155741
-0.004020 -0.438935 -0.158017
-0.038496 -0.453704 -0.153282
-0.328384 0.265218 0.000870
-0.120934 0.093552 -0.066343
-0.291147 0.287473 -0.302792
-0.304538 0.274619 -0.273557
-0.280802 0.296491 -0.288138
-0.265829 0.015262 -0.040949
-0.259831 0.027378 -0.079985
-0.252483 -0.001061 -0.051261
-0.321084 -0.085688 -0.056551
-0.299563 -0.085767 -0.046930
-0.320652 -0.111638 -0.073898
0.362291 -0.366083 0.146201
0.387721 -0.372879 0.112929
0.390554 -0.387042 0.141137
-0.341242 0.006039 -0.052350
-0.324928 0.029740 -0.047348
-0.199851 -0.035838 0.253399
-0.194379 -0.044906 0.247324
-0.195644 -0.036185 0.231586
-0.196543 0.110179 0.171213
-0.268032 0.237490 -0.020401
-0.270877 0.260021 -0.027245
-0.244417 0.249056 -0.015637
-0.399083 0.051850 0.034224
-0.173231 0.102698 0.002265
-0.156070 0.095829 -0.051186
-0.220850 -0.081770 -0.124680
-0.264648 -0.056567 -0.113241
-0.232181 -0.059877 -0.113602
-0.251012 -0.078876 -0.117620
-0.256964 -0.085626 -0.109731
0.009828 -0.074879 0.328927
-0.001230 -0.095715 0.310512
-0.008207 -0.094096 0.322320
0.111292 -0.037479 0.270189
-0.227675 0.018109 0.227214
-0.224233 0.013296 0.215123
-0.065238 0.277700 -0.000514
-0.076279 0.307237 0.006632
-0.285728 0.007894 -0.074357
-0.339486 0.204466 -0.026689
-0.356198 0.189305 -0.051635
-0.351660 0.187604 -0.033697
-0.085999 -0.108457 0.253366
-0.097952 -0.121505 0.254329
-0.095677 -0.137232 0.261831
-0.333318 0.186062 -0.021504
-0.242141 -0.312158 0.212925
-0.212505 -0.346478 0.214156
-0.413639 0.107740 0.007139
0.179314 -0.173197 0.318029
