0.176996 -0.079461 0.722907
0.600634 0.009367 -0.559443
-0.522025 0.084558 -0.412601
0.079270 -0.103290 -0.735585
-0.161026 0.347161 -0.148839
0.329520 0.109551 -0.723616
-0.368912 -0.433916 -0.708911
0.524117 0.368633 0.659664
-1.017540 -0.411079 0.382150
0.726697 0.136308 -0.596419
0.711661 0.063637 0.131359
0.653921 0.850963 -0.428238
0.816371 0.268495 -0.297652
-0.897930 -0.152293 0.058942
-0.951185 -0.415244 0.242089
0.153948 -0.191622 -0.612155
-0.529118 -0.545909 -0.738805
-0.261092 -0.156611 0.731167
0.971509 0.513581 -0.276119
-0.602883 -0.745332 0.339440
-0.387290 -0.070349 0.706206
-0.208027 -0.538311 0.528395
0.511535 -0.218145 0.501510
-0.698741 -0.766180 -0.537086
-0.779434 -0.414772 -0.728438
0.538228 0.068239 -0.729838
0.109957 -0.256735 -0.589986
0.703253 0.290061 0.395435
-0.335473 -0.898273 -0.504922
-0.544317 0.081153 -0.409175
0.667562 -0.138660 0.563791
-0.394812 0.239648 -0.470333
-0.759309 -0.589335 -0.495458
0.442385 -0.039041 0.261868
-0.348319 -0.086419 -0.728586
0.005992 -0.362103 -0.278808
-0.162927 -0.813763 -0.329977
-0.031455 0.463111 -0.362171
0.282375 0.815012 0.352581
0.584927 0.855592 -0.659035
-0.624290 0.041681 -0.059951
0.586144 0.801455 -0.691092
0.130505 0.570325 -0.180464
0.113011 0.634357 -0.186252
-0.337858 -0.870487 -0.509468
-0.857523 -0.464648 0.132314
0.681620 0.244073 0.222038
0.765943 0.653394 0.548287
0.619986 0.916889 -0.329139
-0.610816 -0.811243 0.143768
0.661111 0.806302 0.315932
-0.107743 -0.209838 0.713348
-0.167494 0.556669 0.382120
0.572660 0.778973 0.249360
0.920247 0.335330 0.089433
-0.164392 -0.466992 -0.336852
0.295287 0.740373 0.120367
0.559479 0.850306 -0.093540
0.276685 -0.335204 0.597030
-0.069220 0.579850 0.479954
-0.144483 -0.648932 -0.507584
-0.118370 -0.728379 0.403219
0.308301 -0.164535 0.174254
-0.296674 -0.559718 -0.716337
0.688778 0.234024 -0.716015
-0.627512 -0.766275 -0.057059
-0.895089 -0.319756 -0.678236
-0.271487 0.440452 0.418287
-0.887413 -0.370004 -0.604511
0.485164 0.689668 0.279988
0.158095 -0.049412 -0.715013
0.153952 -0.163627 0.294323
0.278392 -0.259601 -0.366923
-0.522950 0.020587 0.259913
-0.120674 -0.409431 -0.199652
0.074914 -0.031259 -0.712538
-0.529791 0.094877 -0.279775
-0.923803 -0.283855 -0.094894
0.593191 -0.249260 0.555262
-0.667944 -0.647973 0.342521
-0.331770 0.483811 0.186436
-0.412970 -0.896159 -0.497907
0.007167 0.140258 -0.690026
0.379454 -0.245319 0.453512
-0.578649 -0.708042 -0.803578
-0.014107 0.469669 -0.241480
0.166697 -0.142065 -0.751283
-0.161095 -0.747083 0.094222
-0.568698 0.063101 0.064933
-0.524260 0.065577 -0.023589
0.382731 0.491613 0.679179
-0.460874 -0.880901 -0.144083
0.336993 -0.204714 0.187659
-0.492628 -0.842842 -0.350180
0.743231 -0.009653 0.636548
-0.772458 -0.064697 0.096222
-0.956244 -0.209245 0.019294
0.900999 0.513642 0.466371
-0.119297 0.427774 -0.698535
0.639997 0.820793 0.046796
0.787428 0.348261 0.466270
0.838737 0.614095 0.050291
0.087640 0.663311 0.161401
-0.660055 -0.563359 0.505820
0.249605 -0.330958 0.683596
-0.303827 -0.840038 -0.331288
0.114163 -0.296273 0.589487
-0.658207 -0.842517 -0.449451
-0.875659 -0.423459 0.483096
-0.955915 -0.240033 -0.628216
-0.126982 -0.707827 -0.539393
0.937203 0.506458 0.121362
0.744753 0.149914 0.491796
0.210530 0.460083 0.670834
-0.462569 -0.908298 -0.014107
0.165554 -0.311856 -0.313338
0.604502 -0.250898 0.602751
0.422519 -0.232695 -0.316257
-0.727271 -0.543060 -0.654721
0.559311 0.901927 -0.500121
0.004767 -0.239996 0.382777
0.828133 0.287729 -0.008521
-0.973211 -0.234068 -0.365455
-0.369754 -0.851791 0.357592
-0.758554 -0.066344 0.202722
-0.589475 -0.560562 -0.725660
0.809484 0.228255 -0.484718
0.953846 0.459144 0.123590
0.244456 -0.260209 -0.089791
-0.584239 -0.443870 -0.740707
0.345016 0.217172 -0.699273
0.438235 -0.130872 0.739233
0.207452 0.649721 -0.244390
0.638890 -0.227512 0.588697
-0.201807 -0.795378 0.146639
0.668423 0.134312 0.279957
0.477737 0.810931 0.029959
-0.183601 -0.881105 0.247047
-0.359701 -0.650416 0.488026
-0.639737 -0.710422 0.319774
-0.213714 -0.284618 0.676188
0.236955 0.640456 -0.712909
-0.722661 -0.026721 -0.410933
-0.793638 -0.619213 -0.183253
-0.135301 0.194919 -0.701645
0.436738 0.620102 0.569441
-0.889765 -0.163530 0.141604
-0.008977 -0.330084 0.109650
0.915335 0.581267 0.386902
-0.077576 -0.658849 0.139404
-0.212884 -0.307433 0.534677
0.348811 -0.318960 0.144538
0.154690 -0.251956 -0.541745
-0.377682 -0.589238 0.524481
0.015852 -0.283907 0.366308
0.812753 0.582211 0.201069
0.511601 0.898626 -0.221310
0.216743 0.725049 0.552932
0.780232 0.307443 0.394010
-0.205245 0.056829 0.655860
-0.026433 0.598711 0.459675
0.255690 0.782681 0.252590
-0.784486 -0.111498 0.295117
-0.493277 -0.113213 0.575657
0.713930 0.821424 -0.252041
-0.556102 -0.674671 0.467355
-0.664206 -0.753357 -0.385807
0.921685 0.437721 -0.677268
-0.273955 -0.865460 0.172089
0.560456 0.508139 0.574355
0.603693 0.105910 0.209393
-0.454526 -0.861826 -0.187530
-0.905109 -0.336861 -0.722838
-0.300488 -0.265966 0.645581
0.872328 0.559474 -0.065794
0.052143 0.690336 0.506250
-0.944986 -0.419455 -0.175032
-0.946021 -0.393431 0.289083
0.455153 -0.153785 0.468634
-0.207524 0.368875 -0.662369
-0.227251 -0.404773 -0.359302
-0.256468 -0.068313 0.680350
-0.283736 0.358248 0.489714
-0.114836 -0.662090 -0.542697
-0.401845 -0.867946 0.293838
-0.205614 0.027537 0.618814
-0.518006 -0.900206 0.190245
0.072357 0.080544 -0.720644
-0.042832 -0.378940 -0.243181
-0.431249 -0.893445 -0.495246
0.623568 -0.169043 0.685801
-0.885659 -0.090271 -0.057770
0.145562 0.263099 -0.740616
0.474026 -0.171939 0.681743
0.314190 0.180091 0.754646
0.015941 0.154256 -0.708241
-0.238779 0.203328 0.414482
0.654739 0.801843 -0.721793
0.542068 0.470835 0.566147
0.520917 0.158717 -0.705508
0.449365 -0.032987 0.307162
-0.899754 -0.344908 0.371877
0.860248 0.643239 0.398831
0.258751 0.786590 0.576692
-0.085248 -0.797555 0.303766
0.655530 -0.047474 0.002341
0.195029 -0.211481 -0.665134
0.147998 0.746577 0.374346
0.085391 -0.246387 0.223506
-0.671623 -0.008096 0.042275
-0.955389 -0.239753 -0.458805
0.144312 -0.260095 0.081846
-0.411814 -0.250040 0.527337
-0.186328 0.371345 -0.614678
0.787485 0.343459 0.500402
-0.819402 -0.081507 0.322091
0.538448 0.517697 -0.728469
0.077151 -0.310478 -0.316272
0.155920 -0.273863 -0.502415
-0.275640 -0.684631 -0.697495
-0.206461 -0.439010 0.145124
0.561459 0.776479 0.195137
-0.195227 0.363710 0.591477
-0.699217 -0.195648 -0.725214
-0.191504 0.465949 0.673709
0.905037 0.366600 -0.704285
-0.779030 -0.034320 -0.241807
0.480680 0.827373 0.035076
-0.212077 -0.875867 0.170348
0.635908 0.946227 -0.105040
0.922035 0.456176 -0.735166
0.375995 0.729951 -0.494837
0.825240 0.285571 -0.424740
-0.855650 -0.065271 -0.291284
0.321856 0.763660 0.292505
-0.324835 -0.742765 -0.702267
0.896663 0.338835 -0.267767
0.367826 0.058726 0.691053
0.951203 0.363123 -0.137615
0.001216 0.495358 -0.216291
-0.622920 -0.373610 -0.722860
-0.829191 -0.459214 -0.589127
-0.761846 -0.261139 -0.772129
0.778628 0.534360 -0.710541
0.824541 0.306361 0.010471
0.954336 0.454248 -0.133569
0.665843 -0.052958 -0.266078
-0.806950 -0.022559 0.009573
0.247434 0.805620 0.244587
0.590747 -0.160374 0.479106
0.844813 0.568622 0.237207
0.078559 -0.336648 -0.135679
-0.070235 -0.114389 -0.762008
0.050624 0.480895 -0.104566
-0.772137 -0.161906 -0.742783
0.012636 -0.288367 -0.459810
0.099510 -0.154407 -0.682398
0.462766 -0.181559 -0.169720
-0.891873 -0.173624 0.320768
0.444136 0.286594 0.723925
-0.571157 0.144895 -0.046311
0.483826 0.216292 0.675988
-0.148065 0.257320 0.609031
0.915070 0.417765 -0.371854
-0.742020 -0.566762 -0.751056
-0.512641 -0.853005 -0.550199
0.231218 -0.323375 0.043008
0.762924 0.474616 0.585500
-0.909778 -0.460378 -0.634342
-0.718427 -0.666398 -0.386740
0.724949 0.743757 -0.009883
-0.716635 -0.413671 0.470439
0.699338 0.067689 -0.493258
-0.700004 -0.696196 0.092317
0.102421 -0.236857 0.521399
0.867061 0.307809 -0.043414
-0.439426 -0.891315 -0.140435
0.273706 0.791004 0.247739
-0.448340 0.107570 0.344868
0.726935 0.580179 0.561315
0.084776 -0.214541 0.470326
0.176829 -0.203409 -0.450326
-0.093085 -0.312565 0.287458
-0.428101 -0.585879 0.562998
-0.960093 -0.241274 -0.482789
0.651620 0.871393 -0.549445
0.297292 0.818426 0.254789
0.763506 0.058696 -0.300175
0.049998 -0.150379 0.559505
0.159959 -0.258485 -0.330292
-0.575637 0.006229 -0.495958
-0.895633 -0.378689 0.153514
0.658282 -0.072248 0.058081
0.772557 0.809577 -0.146589
-0.959535 -0.188623 0.018923
0.917036 0.518234 -0.093981
0.341090 0.448295 -0.726976
0.631667 0.791581 0.032541
0.827743 0.545053 -0.197400
0.799415 0.628455 0.122092
-0.508363 -0.840172 0.223165
-0.364403 -0.217149 -0.731294
0.734952 0.767932 0.156932
-0.152998 0.349578 -0.466520
-0.265854 -0.867618 -0.411357
-0.188154 0.506824 0.561658
0.479205 0.832937 -0.515233
0.833858 0.587184 0.156101
-0.153751 -0.423307 0.233778
0.822560 0.242061 -0.219589
0.409407 0.742327 0.098975
-0.330775 -0.119676 -0.711647
-0.136368 -0.411486 0.226090
0.549841 0.106636 0.685690
0.122655 0.465275 0.720783
-0.506697 -0.080203 -0.714010
-0.149398 0.296173 0.641288
0.304801 -0.289275 0.688977
0.717047 0.195322 -0.717617
0.050855 0.618908 0.300986
0.677086 0.007090 0.168846
0.945192 0.499118 -0.023534
-0.527403 -0.875327 -0.596419
-0.332371 -0.335653 0.570407
0.755838 0.021016 -0.145582
-0.014287 0.425441 -0.708423
0.003215 0.395968 0.661030
-0.111934 0.182285 0.657308
-0.834209 -0.502027 -0.016510
-0.226045 0.491334 0.313350
0.842046 0.447432 0.509404
0.853840 0.536171 -0.331098
0.669350 0.104550 0.033286
0.047991 0.589303 0.135339
0.036041 -0.247108 0.381576
0.773130 0.087984 0.008035
-0.921234 -0.290132 -0.125356
-0.837200 -0.326820 0.384668
-0.709852 -0.074646 0.399473
-0.909033 -0.393930 -0.446699
-0.075703 0.406537 -0.236240
0.603189 -0.037513 0.745271
-0.472426 -0.805988 0.441816
-0.551055 -0.467222 0.491676
-0.168742 0.522037 0.332681
0.116901 0.578604 0.019412
0.339408 -0.287456 -0.462464
0.782999 0.207227 -0.260923
-0.339942 0.119169 0.401203
-0.115345 -0.659201 -0.371617
0.925315 0.485505 -0.281707
0.168206 -0.320943 -0.329262
-0.123146 0.328954 -0.698787
0.752148 0.113518 0.635511
0.894464 0.607316 -0.462530
-0.601045 0.046411 0.210253
-0.531396 -0.767654 -0.669616
0.643474 0.003181 0.212718
0.411540 -0.022608 0.247395
0.709163 0.737659 -0.746965
0.491900 0.124781 -0.761337
0.133002 -0.331636 -0.084230
0.586413 -0.106843 -0.320315
0.378863 0.244061 -0.720852
-0.051839 0.500069 0.137438
0.397148 -0.195380 -0.360246
0.123210 0.793465 0.485397
-0.673058 -0.027841 -0.673055
-0.047983 0.577705 0.126491
-0.650556 -0.684054 -0.722975
0.515275 0.476083 0.623897
-0.882936 -0.204437 -0.309143
0.875848 0.415234 0.346949
0.963350 0.295370 -0.142589
-0.454029 -0.651603 0.552779
0.525005 0.379973 -0.698186
0.248912 0.365564 -0.726961
-0.146641 0.514162 0.446252
-0.228946 0.327688 -0.476737
0.067934 0.701378 0.540836
-0.282990 0.187606 0.140955
-0.223350 -0.524735 0.524194
0.760262 0.728311 0.205767
-0.902073 -0.412211 -0.047997
-0.981575 -0.247716 -0.340065
0.424256 0.683927 0.120276
-0.070703 -0.280046 -0.676965
0.769631 0.166246 -0.195306
-0.645262 -0.459905 0.489609
0.226499 0.725859 0.550379
-0.229753 0.027246 0.628952
0.331731 -0.072060 -0.673173
-0.406438 -0.881856 -0.279438
-0.921697 -0.315053 -0.053190
-0.547911 0.075823 0.161142
0.754279 0.732617 -0.574484
0.482427 0.707250 0.503748
0.858839 0.244153 -0.201538
-0.231743 0.344409 -0.471913
-0.240713 -0.270545 0.532312
-0.196286 0.237173 0.427795
0.148653 0.560957 -0.502116
0.710647 0.811994 -0.125515
0.650809 -0.045407 -0.004840
-0.178143 -0.759975 -0.319507
0.414951 0.788430 -0.620348
-0.420287 0.221644 -0.390542
-0.418207 0.234363 -0.526700
-0.255618 -0.525030 0.529638
0.027635 0.534380 -0.151092
-0.317220 0.205684 0.293336
-0.334677 0.179990 -0.662063
-0.016745 0.448245 0.671783
0.666272 0.827207 0.405218
0.243607 -0.311818 0.490702
0.708233 0.087258 0.662547
-0.458929 -0.392257 0.507827
0.041049 -0.258412 -0.477348
0.636610 0.059891 -0.540501
0.717134 0.714902 0.503616
-0.072282 -0.306705 -0.112504
-0.190659 -0.456325 -0.077487
0.024206 0.482159 -0.635842
0.228429 0.491560 0.778875
-0.056288 0.583963 0.314478
0.802230 -0.078163 0.486055
0.631660 0.001370 -0.169098
0.965925 0.471393 0.358296
-0.864222 -0.088659 -0.531022
-0.825774 -0.063102 0.004108
0.115445 -0.174929 0.647033
0.141530 -0.083692 0.676156
0.572428 0.263809 -0.702152
0.414536 0.695864 0.473303
-0.929013 -0.414109 -0.516789
0.258076 0.663592 -0.721856
0.857553 0.558281 0.390041
0.373171 0.786241 -0.443979
-0.645207 -0.182657 -0.683938
-0.525111 0.078696 0.211269
-0.596340 0.044636 -0.535954
-0.855634 -0.133566 -0.635770
0.474468 0.511553 0.653367
-0.943116 -0.168832 -0.191748
0.662406 0.804316 0.328797
-0.609056 0.011325 -0.443457
-0.292607 0.365069 0.425997
-0.200058 0.383881 -0.417185
-0.141091 -0.393300 -0.416761
0.256268 0.685740 -0.489325
-0.654287 -0.600671 0.468855
0.158870 0.756899 0.546832
0.089512 0.606805 -0.386461
-0.214890 0.366001 -0.560154
0.491681 -0.047059 0.201004
0.872278 0.540569 -0.615010
-0.635785 0.006193 0.290416
-0.330050 0.002398 -0.708678
-0.307047 0.163537 -0.756963
0.125156 -0.285025 -0.275648
0.694379 0.777675 -0.582412
0.984510 0.352441 -0.524136
0.492193 -0.206726 0.123022
-0.128326 0.439108 -0.539610
0.041972 -0.273199 -0.743733
0.637134 -0.181112 0.582468
-0.379312 -0.397456 0.437575
-0.272856 -0.919774 0.333909
-0.498027 -0.317312 -0.809703
0.798881 0.259020 0.005035
-0.905492 -0.165936 0.209630
0.256879 0.628050 -0.446775
0.851524 0.238409 0.209812
-0.003269 0.497977 -0.127847
-0.171114 -0.430562 -0.531617
-0.202764 -0.894171 0.109459
0.516352 0.303364 0.660877
0.508732 -0.173407 0.393321
0.866252 0.203645 -0.094227
0.057560 0.639765 0.512985
-0.017421 0.326775 0.691881
0.483907 -0.098748 -0.190787
-0.138096 -0.174561 0.664120
-0.109775 -0.827317 0.242007
-0.699420 -0.030388 0.216150
-0.918518 -0.284866 0.355407
0.705209 0.058029 0.376937
0.346484 0.664117 0.425897
0.450472 0.713118 -0.690688
0.526853 0.668008 -0.728476
0.824356 0.632336 -0.589179
-0.370795 -0.490221 0.526363
0.591712 0.916538 -0.266344
0.739441 0.473999 -0.739229
-0.958761 -0.366715 0.308396
0.809464 0.688154 0.020041
-0.969484 -0.274361 0.160312
-0.476008 -0.829137 0.231881
-0.327388 -0.227813 0.534202
-0.797719 -0.605062 -0.043374
0.489439 0.541441 0.572601
0.579012 0.453304 0.600897
0.369096 0.714459 0.281880
-0.512165 -0.710699 -0.714236
-0.221915 -0.330290 0.563954
-0.291257 0.274570 0.138949
1.000530 0.378333 -0.397808
0.878711 0.403758 0.357280
0.422327 0.405477 0.674044
0.016814 0.594693 0.131153
0.321670 0.726766 0.521736
0.729166 0.583733 0.533661
0.327306 0.578053 0.683186
0.315410 0.733007 0.005622
0.877844 0.251692 -0.299712
-0.398248 0.236302 -0.508877
0.211268 0.224649 -0.667891
-0.397182 -0.888693 -0.088110
0.516944 0.168065 -0.732011
-0.252879 0.303033 -0.025252
-0.190778 -0.457203 0.417046
0.431363 0.783266 -0.240432
-0.409006 -0.843110 -0.030131
-0.182529 -0.153776 -0.739621
0.907565 0.562044 -0.180993
-0.424074 0.121021 0.252088
-0.502151 -0.008135 0.482940
0.205553 -0.347816 0.532591
0.931128 0.471103 0.255401
-0.416141 -0.843126 0.392947
-0.125059 -0.276688 -0.560224
-0.217312 0.321837 -0.352494
0.109779 0.741968 0.318976
-0.333260 -0.919366 0.158383
-0.283125 0.262427 0.041015
0.242536 -0.261985 0.114482
-0.198831 -0.603060 -0.046571
-0.867191 -0.112048 -0.573686
0.522214 0.867428 -0.401219
0.588605 0.502464 0.672693
0.079870 -0.135433 -0.747056
-0.045564 0.343431 0.759304
0.448549 -0.242068 0.417807
0.314096 -0.379621 0.474106
-0.030304 0.418821 0.736820
0.444884 0.814686 0.022381
-0.598052 -0.417920 -0.722710
-0.720487 -0.686659 -0.378087
-0.291985 0.481598 0.441316
-0.720715 -0.655719 -0.429416
-0.835871 -0.575476 -0.156209
-0.159360 -0.623292 -0.469365
-0.844971 -0.548138 -0.253124
-0.134651 0.396278 0.640303
0.812693 0.450466 0.504136
-0.889930 -0.392857 -0.102284
0.736048 0.078771 0.662678
-0.266136 0.394789 0.336701
0.864452 0.626443 0.388681
-0.786888 -0.064338 0.019094
-0.651420 -0.783784 -0.452036
-0.729951 -0.398982 -0.714410
-0.706316 -0.620618 0.008226
-0.041263 0.495608 0.159279
-0.886108 -0.395062 -0.543938
-0.597055 -0.197218 0.479896
-0.773933 -0.561638 0.315762
-0.509767 -0.892448 -0.134703
-0.462244 -0.399047 0.492574
-0.720390 -0.038348 0.284565
0.473915 0.230822 0.706262
-0.218278 -0.915897 0.165121
-0.780841 -0.071914 0.075176
0.788196 0.309017 -0.411850
-0.396913 0.230519 -0.109837
0.093034 0.209452 -0.701560
0.676278 0.833121 -0.269913
-0.729904 -0.569243 0.338570
-0.382216 -0.860076 -0.146046
0.931001 0.415213 -0.394751
0.754982 0.500249 0.542249
-0.072784 -0.386888 -0.201752
-0.468775 0.129381 0.176682
-0.116831 -0.344442 -0.654444
0.562433 0.028650 0.309674
-0.114388 -0.219252 -0.764233
0.068532 0.608696 0.458260
-0.023493 0.372016 -0.735515
0.076420 -0.018287 0.678847
0.792652 0.233145 -0.446243
0.444077 0.838974 -0.328756
0.616557 -0.033637 0.711745
0.514624 0.685387 0.355725
0.587174 0.430579 0.596271
0.338625 0.545399 0.649107
-0.718107 -0.430683 0.467754
0.096048 0.685463 0.378029
-0.154978 -0.847510 -0.128509
-0.153256 -0.019752 0.656624
0.336268 0.037347 0.724973
-0.447550 -0.516512 -0.704095
-0.778446 -0.482819 -0.714048
-0.503198 0.137586 0.169500
0.038950 -0.279003 0.086767
0.459740 0.863222 -0.371565
-0.184867 0.524778 0.140761
0.273291 -0.289746 -0.386328
-0.900521 -0.502554 -0.236154
0.657712 0.464797 0.661713
-0.179490 -0.681577 0.414275
-0.737068 -0.430106 0.466362
0.717598 0.756799 -0.537163
0.196846 0.187989 0.728648
-0.708196 -0.041249 -0.526433
0.401033 0.607238 0.193643
-0.424838 0.056951 0.451666
-0.414785 -0.885871 -0.247764
0.742938 0.152671 -0.461581
-0.504487 0.176473 -0.385750
0.324768 -0.226688 0.731235
0.778606 0.321241 0.459175
0.117296 -0.132196 0.673992
-0.338376 0.229061 -0.709272
-0.274242 -0.848770 -0.119490
0.803903 -0.084271 0.622871
-0.698469 -0.131679 0.442248
-0.659351 -0.729536 0.234145
-0.061361 0.203055 0.692524
0.245687 0.764347 0.179952
-0.864893 -0.478463 -0.033472
-0.147400 -0.619578 0.075777
-0.330449 0.009337 0.550217
0.817360 0.690058 0.395991
0.639038 0.085216 0.294747
-0.205250 -0.018701 -0.743975
0.166029 0.713848 0.467741
0.113265 0.402525 0.664898
-0.815476 -0.131998 -0.438608
-0.590315 -0.852929 -0.094406
-0.166951 -0.583830 0.074242
0.828175 0.085701 -0.178206
0.208255 0.676886 -0.122904
0.309156 -0.140987 0.331626
-0.946160 -0.226431 -0.177893
-0.845931 -0.124688 -0.300088
0.798019 0.027531 -0.329775
0.439259 -0.174838 0.072881
0.752652 0.083838 -0.565762
-0.113764 0.204904 0.633232
0.091380 0.732549 0.477791
0.826945 0.689651 0.311933
-0.096547 -0.286566 0.386675
-0.608355 -0.864869 -0.356575
-0.664925 -0.055134 0.263481
0.694555 0.086152 0.389839
-0.000044 -0.106268 -0.764470
0.834225 0.099016 -0.107314
0.092803 0.655696 0.340138
0.110904 0.757637 0.349322
-0.632092 -0.836410 -0.400390
0.299242 0.240044 0.702921
0.180011 0.605307 0.077993
-0.952955 -0.330199 -0.259445
0.014489 0.386452 0.682011
-0.601003 0.013520 -0.224065
-0.052469 0.481115 -0.368337
0.493045 0.883724 -0.231906
-0.187388 0.293118 0.235014
0.619958 0.608273 -0.693946
0.750962 0.268130 -0.688597
0.518765 0.307579 -0.680330
-0.767201 -0.641449 -0.175132
0.393418 0.243101 0.733402
-0.876480 -0.435598 0.048072
-0.101974 -0.007159 -0.740170
-0.520545 -0.063622 -0.739978
0.009111 -0.294106 0.250407
0.253249 0.417591 0.730451
-0.575940 -0.743468 -0.776349
0.723644 0.607908 0.491163
0.270513 0.705966 0.142333
0.319505 0.131941 0.712144
-0.093922 -0.799407 0.302014
0.242521 -0.188621 -0.585512
-0.593725 0.019395 0.054167
-0.541983 -0.586157 -0.659991
0.662993 -0.096994 0.685130
0.345963 0.684657 0.311493
0.732386 0.788662 0.206473
0.753752 0.044877 0.420564
0.514352 0.420365 -0.761297
0.766324 0.237786 0.278304
-0.085033 -0.644752 0.188385
0.549488 -0.074510 0.004903
0.897793 0.379787 0.368525
0.754078 0.695883 0.167356
-0.928203 -0.129864 -0.022390
-0.896019 -0.264397 0.345133
0.406195 0.766106 -0.190736
-0.689582 -0.078884 0.251895
0.624773 -0.113423 0.687954
0.838346 0.067181 -0.212478
-0.635089 0.004120 -0.304424
0.444467 -0.116355 -0.592667
0.439069 -0.086366 0.762314
0.104594 0.512228 -0.202883
0.707382 0.238633 0.233487
-0.833928 -0.473586 0.015981
0.730501 0.718534 0.176601
0.017829 0.279438 -0.750511
0.408593 0.737549 -0.705633
0.742218 0.270323 -0.727423
-0.293994 -0.440639 0.547249
0.186768 -0.155166 0.305541
-0.186091 -0.211763 0.671817
0.505737 0.029934 0.300784
0.176933 0.610825 -0.207073
-0.076591 -0.082929 -0.688789
0.363885 0.739434 0.047689
-0.338264 -0.262808 0.487804
-0.469123 -0.353228 -0.717854
0.155664 0.574106 0.712967
0.444719 -0.291194 0.635783
0.378034 0.309925 -0.721248
0.708946 0.123412 -0.394173
-0.095025 0.026275 0.562494
0.419361 -0.192134 -0.405533
-0.354760 -0.522382 0.514414
0.590873 -0.108967 -0.061287
-0.416856 0.229436 -0.382057
0.179895 0.795918 0.352067
-0.318027 -0.318435 0.659243
0.198529 0.633705 -0.199564
-0.858281 -0.085257 -0.639687
-0.197750 -0.195998 -0.715560
-0.366165 -0.250542 -0.725413
-0.688495 -0.000535 0.077443
-0.196110 -0.746877 0.018187
-0.688062 -0.073119 0.040308
0.769979 0.218928 0.120696
0.784478 0.568439 -0.724308
-0.656093 -0.698456 0.013727
0.350695 -0.217519 -0.469075
-0.714578 -0.047727 0.329359
0.749212 -0.049339 0.576916
0.574975 0.895305 -0.149045
0.502361 0.419085 -0.762463
-0.043657 -0.357452 0.089509
0.729051 0.437543 0.546700
-0.248158 -0.060426 0.673035
-0.308808 -0.170739 0.689500
0.023955 -0.236507 0.215245
0.333518 -0.342973 0.746212
-0.779432 -0.578623 0.344804
0.543678 0.076738 0.716181
0.261990 0.717497 -0.379918
-0.113708 0.079286 -0.706127
-0.357663 -0.513037 0.534096
0.513259 -0.094372 -0.084640
0.159754 -0.197364 0.276901
-0.827374 -0.491525 -0.694701
0.474653 -0.103176 -0.597610
-0.498177 0.175733 -0.644211
0.854757 0.218036 -0.109578
-0.359672 0.017844 -0.744148
-0.870626 -0.218644 -0.758089
0.586483 -0.059182 -0.631651
0.626637 -0.098705 0.479834
-0.157204 -0.817604 -0.415043
-0.494594 0.203221 -0.230069
-0.471370 -0.368652 -0.744228
-0.614129 -0.746370 0.071491
0.107867 0.066314 0.757022
-1.005200 -0.423771 0.361265
0.466988 -0.120808 0.730568
0.415354 0.817313 -0.159163
-0.579726 -0.278601 0.513615
-0.449971 0.198823 -0.413138
-0.536792 -0.723481 -0.757978
0.611571 -0.218045 0.621490
-0.568657 0.133369 0.135211
0.758239 0.698704 0.512498
-0.754208 -0.572394 0.277713
-0.044840 0.091589 0.713700
0.620027 -0.075134 -0.334760
-0.951725 -0.249213 -0.163714
0.078773 0.341723 -0.731543
0.360095 -0.366115 0.644100
0.677958 0.101491 -0.646472
-0.757294 -0.044917 0.101454
0.706757 0.774328 -0.775620
-0.186674 -0.437900 -0.700711
0.660026 0.066018 0.270286
-0.244350 0.521962 0.388684
0.172319 0.087124 -0.735661
0.105244 0.647626 0.522969
0.458330 -0.034763 -0.696522
0.429913 0.812424 -0.441958
-0.218477 0.258463 0.484839
-0.828303 -0.561943 0.236793
-0.809894 -0.071823 -0.155520
-0.341297 0.158139 -0.693679
-0.647831 -0.014158 -0.081171
0.037590 -0.308633 -0.412989
-0.408672 0.207593 -0.564224
0.459604 -0.042742 0.331444
0.375322 -0.212950 0.395360
-0.420728 0.178059 -0.333838
0.431464 0.811630 -0.168322
0.501428 -0.075424 -0.573037
0.680390 0.771171 0.135577
-0.136791 -0.791186 -0.275763
-0.387261 0.180639 0.089800
-0.220547 0.203030 -0.720591
0.943834 0.558739 0.337850
-0.962712 -0.400396 0.247241
-0.422748 0.115413 0.304551
-0.325556 0.155789 -0.676369
0.418415 0.094491 -0.708961
-0.787276 -0.547930 0.162006
0.252109 -0.248917 0.673863
0.684347 0.429153 0.585631
0.309839 -0.214652 -0.552938
-0.888991 -0.282854 0.350131
0.717759 0.081761 -0.527843
-0.280395 0.045489 0.590418
0.366540 0.509369 -0.707065
0.917518 0.472620 -0.501033
-0.497560 -0.733187 -0.694052
-0.053958 -0.250459 0.465002
0.839672 0.284782 -0.347416
0.657790 -0.028587 -0.193388
0.402946 -0.103038 0.699915
-0.676353 -0.127658 0.485915
-0.620571 -0.801162 -0.114437
-0.240291 -0.783457 -0.705150
-0.385952 0.168442 0.069327
-0.673934 -0.022000 -0.374066
-0.844835 -0.073671 -0.537762
-0.607750 -0.773155 -0.660479
0.185267 -0.061850 0.707268
0.608188 0.892953 -0.677243
-0.320759 0.271948 -0.729308
0.904498 0.530150 0.188265
-0.319980 -0.460821 -0.759908
-0.502377 -0.183750 -0.773505
0.046028 -0.308551 -0.394984
-0.385533 -0.771096 0.426095
-0.123152 -0.265311 0.679959
-0.205195 0.316503 0.113595
0.022965 0.491248 -0.035913
0.081403 0.251250 0.703861
0.111715 0.163115 -0.773579
0.376994 -0.066200 0.711415
0.830812 0.254422 -0.540953
0.805285 0.249904 0.054453
0.508071 -0.142341 0.419409
-0.632472 0.018762 -0.120167
0.121604 -0.251734 0.041607
-0.831579 -0.576360 -0.047058
0.518053 0.840084 -0.682402
-0.973390 -0.410626 0.380231
0.411258 0.501366 0.699522
0.170731 0.360811 0.665895
-0.621339 0.050905 -0.694539
-0.389092 -0.664481 0.582241
0.681152 0.182753 -0.571578
0.387245 0.684166 0.355128
-0.091441 -0.411112 0.079733
-0.336993 -0.932345 -0.284382
0.155231 -0.298446 -0.118304
0.341736 -0.192846 -0.547171
0.107047 -0.235614 0.598094
0.909768 0.264582 -0.180555
-0.480407 0.028699 0.237478
0.751115 0.110181 -0.047808
0.605992 0.288511 -0.732042
-0.206510 -0.785064 -0.588874
-0.730717 -0.624722 -0.683012
0.881878 0.533562 -0.284164
-0.318819 -0.871473 -0.029629
0.599011 -0.071408 0.155840
0.208459 -0.206999 0.065174
0.183258 -0.253220 0.667095
0.694205 -0.182008 0.609017
0.681105 0.791661 -0.574163
0.166459 -0.266121 0.499679
0.043003 0.047509 -0.711014
-0.572436 -0.802033 0.022848
0.890565 0.522538 -0.130694
-0.574188 0.070422 -0.438231
0.424268 -0.296736 0.600854
-0.177678 0.525379 0.385887
0.064153 0.671686 0.511082
-0.622657 0.009638 0.216947
-0.317422 0.268128 -0.428301
-0.130302 0.224557 -0.693266
-0.909944 -0.263033 0.087659
0.592055 0.982084 -0.408996
-0.487655 -0.816326 0.367851
-0.627463 -0.048855 -0.718349
-0.706212 -0.735836 -0.065429
-0.835777 -0.457958 0.094399
0.405113 0.680481 0.173858
-0.952319 -0.423638 -0.182768
-0.272912 0.142096 -0.721610
0.798211 0.633743 -0.009131
0.130185 0.728830 0.382463
-0.857375 -0.484139 0.043787
0.745512 -0.076153 0.464793
-0.157721 -0.796817 -0.620882
0.464377 -0.018492 -0.662838
0.332900 -0.346300 0.488194
0.404022 -0.318645 0.655166
-0.560678 -0.811025 0.229253
0.610099 -0.029852 -0.202717
0.685926 0.680681 0.513470
0.871392 0.383099 -0.707384
-0.955499 -0.323546 -0.137635
0.233832 -0.286022 -0.169926
-0.194477 -0.378235 -0.588823
0.307205 0.060693 -0.734890
0.615562 0.939604 -0.430340
0.216033 -0.348452 0.386363
0.375149 -0.181407 -0.543625
-0.246605 -0.819994 0.363675
-0.553553 -0.522897 0.485666
0.569779 -0.174992 -0.607089
-0.492801 -0.843845 0.301546
0.675230 0.126026 -0.494738
0.688746 0.121421 0.242714
-0.886135 -0.517996 0.093196
-0.914324 -0.409747 -0.492638
-0.192407 0.356912 0.153964
-0.384807 -0.729261 -0.739641
0.395819 0.068871 -0.723976
0.408669 -0.233020 -0.585215
-0.093579 0.584060 0.155542
0.113241 -0.253717 -0.482400
-0.304004 -0.324735 0.546995
-0.692236 -0.268312 -0.688886
-0.184339 -0.211371 0.676689
-0.047962 -0.660111 0.185054
-0.206721 -0.624229 0.517888
-0.258774 -0.458153 0.546600
0.306469 -0.243401 0.115344
0.884608 0.629509 0.256823
0.012966 0.535882 -0.561623
-0.861836 -0.093113 -0.154611
-0.230774 0.308340 0.526197
-0.612656 -0.830417 -0.240023
-0.734815 -0.731061 -0.555289
-0.127806 -0.429935 0.192594
-0.770314 -0.608933 0.107360
0.013362 -0.263221 0.351932
-0.044612 -0.304060 -0.639828
-0.465988 -0.562250 0.529623
-0.441770 0.137323 0.082479
-0.124951 0.384579 -0.572313
-0.511448 -0.376611 0.490927
0.946761 0.420099 -0.441983
0.316145 -0.137341 -0.715124
0.323418 0.719646 0.262035
-0.184768 0.181440 -0.712192
0.640610 0.045778 0.186396
-0.099904 -0.385491 0.063713
0.486395 -0.039056 -0.636331
-0.414112 -0.271370 0.620580
0.271595 -0.251274 -0.050087
-0.111608 0.444294 -0.187814
-0.278033 0.209844 0.171944
-0.085633 0.403046 -0.457391
-0.840131 -0.088483 0.172442
0.518831 0.896506 -0.656630
0.318747 0.181824 -0.705711
0.622174 -0.092055 -0.200315
0.376907 -0.275690 -0.097908
0.418233 -0.049780 0.259609
0.546277 0.751716 0.096436
0.539507 0.087218 -0.708570
0.400128 0.823285 -0.323465
0.429486 -0.230440 -0.328607
-0.361125 0.180520 0.224530
-0.240595 0.345981 0.443184
-0.121231 -0.393591 -0.704248
-0.884332 -0.081529 -0.076564
0.690319 0.670375 -0.730500
-0.203227 0.477714 0.398890
-0.502419 0.055394 0.473671
0.270973 0.759745 0.172487
-0.361312 0.179646 0.120801
0.458729 -0.175780 0.156266
0.772816 0.438996 0.529267
0.628982 -0.045920 -0.382438
0.301361 0.120385 0.773585
-0.119851 -0.768246 -0.070371
0.212924 -0.335957 -0.372125
0.202203 0.515193 0.693710
0.645891 0.111694 0.348818
-0.385146 -0.851878 -0.051982
0.134852 0.586505 -0.757620
0.523817 0.838496 -0.047788
0.027634 -0.268845 -0.046103
0.247952 0.289982 0.704430
0.691180 0.070118 0.115750
-0.489874 -0.627635 -0.762100
-0.964726 -0.124627 -0.132641
0.070474 -0.111096 -0.735114
0.084907 -0.220900 -0.581870
-0.252914 -0.144086 0.653598
0.619159 0.451502 -0.703294
0.528945 -0.129559 -0.579233
0.873102 0.573293 0.172503
-0.144755 -0.411052 -0.405603
-0.228547 -0.573630 -0.721673
-0.156701 0.338840 -0.340725
-0.727618 -0.553037 -0.647922
-0.718311 -0.654871 -0.555005
0.911164 0.515510 0.282312
-0.204228 0.377048 -0.600534
-0.118312 -0.800992 0.151819
-0.134067 0.592003 0.198606
-0.240254 0.196656 0.187286
0.776160 0.129163 0.438907
-0.258690 -0.852111 -0.637576
-0.326417 -0.898891 -0.498051
-0.332731 0.386779 0.210555
-0.158278 -0.792724 0.330636
0.041075 -0.306808 -0.495804
-0.604712 0.084762 -0.389977
-0.145317 0.524110 0.384789
-0.580384 -0.793541 0.065398
-0.160033 0.163660 -0.714816
-0.597528 0.008837 0.156889
0.175212 0.449932 -0.737351
0.583248 0.431411 0.592246
0.454959 0.605139 -0.668275
0.258198 -0.093381 0.756901
0.763795 0.687859 -0.697108
0.374858 0.722495 -0.503712
0.420605 0.724557 -0.690586
-0.580985 -0.023056 -0.084489
-0.285739 0.434776 0.317609
0.222778 0.322209 0.707003
-0.135564 0.561081 0.237696
0.705299 -0.014750 -0.186022
0.604209 0.351343 0.619216
0.771167 0.241251 -0.365359
-0.990971 -0.369117 0.302440
0.638352 0.834597 -0.549533
-0.878003 -0.464078 -0.229328
0.895054 0.422891 -0.658747
-0.154469 -0.774247 0.112324
-0.139206 -0.679625 0.037128
0.712622 0.716594 0.427904
0.017462 0.399180 -0.713895
-0.210662 -0.514995 0.027925
0.616419 0.834890 0.061188
-0.405548 0.177044 0.036467
0.801330 0.779903 0.108774
-0.037261 -0.336308 -0.502960
0.938636 0.418024 -0.384488
0.840224 0.352834 0.325891
-0.928622 -0.134631 -0.277184
0.775644 0.129449 -0.244718
-0.221482 0.227065 0.338466
-0.132472 0.529338 0.562315
-0.118913 0.351612 0.070102
-0.332597 0.168794 -0.138160
-0.707818 -0.060208 0.084574
0.506688 -0.128903 0.097298
-0.146221 -0.368116 0.438770
0.255065 -0.119462 0.790140
0.247381 -0.110489 -0.672377
0.706894 0.796978 -0.290109
0.133284 0.758596 0.137604
-0.350053 0.124764 0.238983
-0.272972 0.214749 0.204905
-0.221460 -0.612968 -0.715123
-0.221344 -0.838579 -0.370266
0.856946 0.610976 -0.549060
0.762733 0.173935 -0.275056
0.436097 0.421315 -0.697614
-0.422676 0.163004 -0.701304
0.022489 0.556036 0.050466
0.398891 0.359784 0.721542
0.264555 -0.191354 -0.505619
0.287051 0.619733 0.123498
0.458501 0.522494 0.596444
0.810498 0.276731 -0.364019
0.203843 -0.339409 -0.089406
-0.347125 0.285854 -0.605690
0.293011 -0.084213 0.689634
0.557109 0.392334 -0.685134
-0.100176 0.456879 0.711389
-0.944822 -0.305261 0.010273
-0.517925 -0.733029 0.435697
0.091606 -0.250346 -0.321086
-0.917768 -0.174879 -0.576097
0.586046 -0.101887 -0.082459
0.473291 0.546796 0.537223
0.862803 0.273971 0.017388
-0.225898 -0.836808 0.262836
0.116433 0.476465 -0.678417
-0.497230 -0.469736 0.486923
-0.714468 -0.670289 -0.517287
-0.139093 -0.404605 -0.157608
0.010059 0.405234 0.740622
0.070066 0.737830 0.104114
-0.139040 -0.601148 0.114019
-0.221807 -0.480140 -0.564061
-0.657747 -0.746604 -0.407291
-0.064204 -0.344674 -0.399638
0.737742 -0.109782 0.582897
-0.273229 0.251817 -0.714991
0.175753 -0.403110 -0.135828
0.819717 0.375458 0.479585
0.849024 0.422174 -0.700182
0.499137 0.775317 0.046182
0.912534 0.335725 0.281512
-0.637963 -0.009847 -0.427323
0.830444 0.204478 -0.131330
0.678132 0.021771 -0.163164
0.479448 0.183578 0.727318
-0.357612 -0.713170 -0.724807
0.624832 0.237805 0.633227
-0.103945 -0.707836 -0.422641
-0.825643 -0.041819 -0.066703
-0.584483 0.065842 -0.053798
0.272523 0.744681 0.538273
0.957914 0.432078 -0.221914
0.338178 -0.373596 0.602536
-0.275945 -0.877224 0.135115
-0.701687 -0.603458 0.454267
0.754093 0.625126 -0.698839
0.697319 0.022926 -0.012445
-0.822717 -0.034294 -0.043619
-0.766282 -0.553882 0.277313
-0.219895 -0.561505 -0.546185
-0.850020 -0.452967 -0.336682
-0.210990 0.199728 -0.754908
-0.515999 -0.221159 -0.709233
0.751890 -0.020434 0.563267
0.000920 0.500236 -0.440178
0.207693 -0.274745 0.579838
-0.374522 -0.031050 0.710747
0.770574 0.583704 -0.751843
-0.236388 0.231818 0.283378
0.183284 -0.154841 0.705170
-0.012485 0.397998 0.675465
0.123321 0.712396 0.479572
-0.662847 -0.086861 -0.698268
-0.227141 0.395718 -0.504337
-0.123473 0.483084 0.234639
0.391316 -0.198477 -0.538441
0.930722 0.341195 -0.439579
-0.123546 -0.407451 -0.545838
-0.812885 -0.131583 -0.205582
-0.757304 -0.037160 -0.253564
0.612135 0.749771 0.457157
-0.179700 -0.628931 -0.765225
0.665569 0.043045 0.706189
-0.930316 -0.422443 0.347632
0.567089 0.907732 -0.564441
0.315347 -0.327801 0.680261
0.588483 -0.060721 -0.186837
0.577426 0.923558 -0.657174
0.211133 -0.254754 0.642626
0.263826 -0.166468 0.270992
0.514261 0.440465 0.608649
-0.137335 -0.724874 -0.660385
0.691457 -0.037088 0.412806
0.077323 0.385105 0.713424
0.178101 0.742272 0.522558
-0.835946 -0.114400 0.083828
0.088579 0.281918 0.725321
0.514778 -0.104830 -0.431705
-0.922579 -0.198848 -0.027400
0.368922 0.707494 -0.552162
0.742383 0.711081 -0.531775
0.324512 -0.280174 -0.525378
0.555025 -0.071278 -0.296049
0.970001 0.396372 -0.176638
-0.642991 -0.162096 -0.725491
-0.749224 -0.061270 -0.223395
0.468328 0.811777 -0.166686
0.770636 0.098348 0.097653
0.943199 0.362209 -0.292498
-0.429010 -0.021202 0.701184
-0.809510 -0.359587 0.433838
0.459809 -0.157192 0.110433
0.524770 0.851309 -0.441042
0.466242 0.017108 -0.545312
-0.458225 -0.197364 0.487902
0.397717 -0.140718 -0.545931
-0.401811 -0.878140 -0.274271
-0.238531 -0.581053 -0.747114
-0.193160 -0.295347 -0.711250
0.528164 0.733183 -0.699744
-0.537821 -0.664433 -0.764717
-0.259596 0.012157 0.717323
-0.210919 -0.871486 0.126859
0.086590 0.771721 0.346921
-0.581679 0.111530 -0.039276
-0.464272 -0.175094 0.535593
0.803790 0.657046 0.362192
-0.498791 -0.424529 0.451010
0.206081 0.748578 0.670670
-0.440317 -0.450775 -0.737857
-0.169153 -0.758729 -0.067663
-0.063049 0.447990 0.152277
-0.137592 -0.719661 0.069904
0.136016 0.646149 0.664828
-0.126681 0.183149 0.612671
-0.038392 0.612756 0.080667
-0.438777 -0.827161 0.395740
-0.169035 0.542616 0.292645
-0.619341 -0.652140 0.530193
-0.132442 -0.411594 -0.403088
0.284054 -0.349214 0.693024
0.742226 0.064514 -0.045848
-0.434318 0.100950 0.095718
0.677827 0.018617 -0.534157
-0.620093 -0.744992 0.281260
0.534654 -0.119192 -0.484105
0.073742 -0.266756 -0.074125
0.119621 0.135525 -0.702920
0.585053 0.056047 -0.608085
-0.434287 0.266618 -0.260994
0.490233 0.670669 0.570962
-0.788336 -0.556098 0.162083
-0.510870 -0.642834 -0.711681
-0.174637 -0.474919 0.481844
-0.742303 -0.670124 -0.171666
-0.252987 -0.275396 0.499442
0.915231 0.434757 0.282569
-0.297570 -0.886907 -0.344301
0.840010 0.549171 -0.675782
-0.049151 0.444180 0.004653
-0.682465 -0.592606 0.410178
-0.100225 -0.773728 -0.425026
-0.463069 0.255407 -0.091882
0.595558 0.180902 -0.698233
0.885849 0.356806 0.296806
-0.146566 -0.787092 -0.534779
-0.047530 0.156668 -0.724168
-0.822296 -0.083519 0.195159
-0.558641 -0.316863 0.491575
0.773893 0.762510 0.070368
-0.055180 -0.354012 0.072091
0.488240 0.008459 -0.650413
0.190149 0.564448 0.129561
0.301177 0.017843 -0.691423
-0.513389 0.072712 -0.712054
-0.519670 0.189358 -0.498550
0.525019 0.288308 -0.702739
-0.461203 0.162639 -0.196630
0.704617 0.657502 0.472259
-0.208571 -0.434138 -0.704726
0.488800 0.850376 -0.056763
-0.581907 0.100931 -0.674161
-0.144070 -0.793023 -0.028909
-0.177445 0.234844 0.540360
-0.267738 -0.875552 -0.530272
0.682157 0.419008 0.523004
-0.112101 -0.751439 0.177802
0.350381 -0.269945 0.704634
0.004252 -0.226803 0.050756
0.202114 0.783640 0.537837
0.016871 -0.256895 -0.521762
0.699561 0.816707 -0.257886
-0.401273 -0.877054 0.124584
0.722601 0.109732 0.642254
-0.324685 -0.284834 0.662762
-0.935888 -0.440703 -0.182229
0.062356 -0.265228 -0.384091
0.578755 0.649526 0.518156
-0.204890 -0.501280 -0.236257
-0.551506 0.156600 -0.590549
-0.547102 0.070140 -0.054146
0.071576 0.430006 0.701982
-0.131379 -0.764607 -0.453445
0.918682 0.430869 -0.038954
0.037919 0.749273 0.443149
-0.345711 -0.801665 0.345680
0.769361 0.709368 0.240979
0.110222 0.743554 0.161154
0.859101 0.686604 -0.340165
-0.125828 0.205163 0.536271
0.471026 0.654167 0.401950
-0.707790 -0.733063 -0.114715
-0.557980 -0.208956 -0.752704
1.002910 0.390074 -0.420956
-0.680934 0.006927 0.142633
0.264586 -0.112539 -0.587279
-0.615089 -0.845366 -0.182337
0.331207 -0.065638 0.744548
-0.432687 0.143749 0.347716
-0.368912 0.132870 -0.682861
-0.135439 -0.528682 0.210406
0.171856 -0.149603 -0.671787
0.880618 0.293025 0.240684
-0.452632 -0.544287 -0.689092
-0.033781 0.500861 0.690064
0.196318 0.794169 0.503946
-0.175180 0.164270 0.549398
-0.185437 0.323495 -0.615360
-0.204294 0.300458 0.126899
-0.342788 0.267496 -0.167536
-0.140182 -0.384059 -0.165172
0.545323 -0.065978 0.732104
0.457236 0.349228 0.726848
-0.217000 -0.392440 0.316746
0.147332 0.748192 0.228204
-0.774447 -0.574311 0.131429
-0.142034 0.129294 -0.781669
-0.968375 -0.383171 -0.283340
-0.441846 -0.791418 -0.739081
0.083677 0.541224 -0.135531
0.488119 0.007863 -0.720927
0.007708 -0.337369 -0.160326
0.071116 -0.327489 -0.093396
0.632136 0.502205 0.587101
0.169741 0.487016 0.706150
0.907262 0.408721 -0.601284
-0.752051 -0.035821 -0.096279
-0.328114 -0.932726 -0.216094
0.855952 0.512131 -0.467179
-0.627071 0.012450 0.207778
-0.169244 -0.441954 -0.580686
-0.058606 -0.099055 0.652203
0.778210 0.204303 -0.038632
0.050947 -0.277886 0.213029
-0.055622 0.459880 0.136365
-0.253477 -0.258814 -0.686924
-0.142923 -0.563137 0.413457
0.871651 0.389316 0.350022
-0.351087 -0.890902 -0.300821
-0.905153 -0.172979 0.062125
-0.184019 0.264736 0.375424
-0.205287 0.183874 0.391363
0.306085 0.659596 -0.547332
0.502801 0.513629 -0.733188
-0.410987 0.157982 -0.726376
-0.227946 -0.292638 0.539754
0.489406 0.768447 0.329344
-0.226135 0.260012 0.309912
0.099904 -0.248777 -0.523329
-0.057226 0.447180 -0.559109
0.706074 0.766159 0.170062
0.943903 0.503210 -0.650137
0.638538 0.860507 -0.167346
0.381081 -0.258966 0.420297
-0.073364 0.108851 -0.672023
0.221341 -0.348457 -0.315605
0.321498 0.740162 0.540259
-0.370838 0.142064 0.424995
0.742314 0.097003 -0.440212
0.977264 0.242616 -0.208365
-0.532539 0.196843 -0.401279
-0.893130 -0.399232 0.443761
0.895052 0.310691 0.128260
0.666620 0.824753 0.289383
-0.058545 -0.647573 0.194853
-0.974244 -0.353753 -0.135059
0.750820 -0.000272 -0.454381
-0.188402 -0.552362 -0.012072
-0.315826 -0.142659 -0.762122
-0.185880 -0.838364 -0.352780
-0.835770 -0.327112 -0.737700
0.375937 0.749358 -0.486304
-0.147617 0.527877 0.256638
-0.169401 -0.659164 -0.114084
0.932872 0.373395 -0.183785
0.671710 0.157302 0.652456
0.483476 0.459293 -0.743065
-0.851664 -0.154255 -0.465986
0.431739 -0.216991 -0.170393
-0.262676 0.395972 0.200776
0.863119 0.582507 -0.022065
0.270078 0.178984 -0.733963
-0.582355 0.092331 -0.132014
0.537590 0.805400 0.186542
-0.458486 -0.634678 -0.729813
-0.885497 -0.467318 -0.217442
-0.262858 0.423584 0.438938
0.953926 0.556519 0.310118
-0.275865 -0.069985 0.684517
-0.766200 -0.640882 0.089367
0.851594 0.661927 0.056018
-0.164565 -0.732032 -0.094444
-0.050463 -0.336068 -0.090058
-0.823157 -0.609748 -0.223320
0.649241 0.791321 0.471271
-0.428555 -0.890057 -0.550798
-0.610239 -0.778981 -0.493974
0.915034 0.585771 -0.529182
0.890183 0.371101 0.293014
-0.033623 0.730405 0.198429
0.360104 0.721888 -0.054727
-0.877832 -0.395346 0.428055
0.667211 0.116613 0.157083
-0.030042 0.477769 -0.535117
0.704207 0.732264 0.483312
-0.487841 0.067949 -0.694953
-0.918966 -0.448618 -0.344285
0.688431 -0.030825 -0.240805
-0.022573 -0.090820 0.587506
0.653198 0.306765 -0.750787
-0.712668 -0.057969 0.116515
-0.194263 0.276745 0.356156
0.717674 0.752349 -0.015024
-0.788250 -0.089172 -0.705048
0.402195 0.002000 -0.661449
0.149856 0.566226 -0.174582
-0.005150 -0.199272 -0.729225
-0.234162 -0.419245 0.493946
-0.010072 -0.351103 0.072400
-0.137044 0.412706 -0.213114
0.381873 0.723685 -0.173003
-0.129369 -0.840768 0.358396
-0.654092 -0.012226 -0.405779
0.216024 0.182963 0.719967
0.482754 0.625625 -0.732069
-0.657218 -0.700877 -0.033146
-0.898143 -0.121481 0.156095
-0.893290 -0.163895 -0.390266
0.903861 0.529007 0.470339
0.604104 0.149218 -0.748882
0.604491 -0.162080 0.503730
0.457981 0.800072 -0.018465
-0.049437 -0.269960 -0.742648
-0.614290 -0.741032 -0.345751
0.134434 0.718867 0.497879
-0.299447 0.290196 -0.541738
-0.475660 -0.455404 0.508437
-0.615308 -0.559135 0.509562
0.248520 0.828218 0.227827
-0.266287 0.349321 0.133127
0.564916 0.309879 -0.722340
-0.221637 -0.663749 0.448766
-0.648082 -0.214464 0.475056
0.321207 0.585818 -0.722706
0.221507 -0.173065 -0.672345
0.647116 0.888296 -0.111609
0.229848 0.447142 -0.727275
-0.200348 -0.376715 -0.751090
0.436575 -0.313223 0.578323
-0.731712 -0.693727 -0.066544
-0.784068 -0.642190 -0.045695
0.031785 -0.270218 -0.516325
-0.198528 0.420402 0.685702
-0.516977 -0.735036 0.485826
-0.219740 0.125715 0.456787
0.966703 0.439092 0.051845
-0.543336 -0.534459 0.493991
0.305847 0.489937 -0.760693
-0.200938 0.350773 -0.179836
0.936602 0.498213 -0.180292
-0.651990 -0.255835 0.513799
0.243016 0.403209 -0.692250
0.292498 0.712110 0.075068
-0.341792 -0.397975 0.527174
0.748736 0.741349 0.366395
-0.672911 -0.147448 0.514860
-0.940729 -0.167805 -0.450017
-0.136323 -0.685894 0.318671
0.091496 0.721116 0.426399
0.056213 -0.243032 -0.703549
0.662822 0.685383 0.524632
-0.325516 0.322577 -0.421596
-0.947637 -0.377009 -0.248506
-0.438211 -0.875122 -0.293167
0.345643 -0.064270 -0.720760
0.933233 0.296533 -0.450042
-0.855410 -0.248177 0.440095
0.438619 0.792043 -0.583221
0.303316 0.368625 0.700194
-0.239589 0.305773 0.365533
0.970583 0.556326 0.377887
0.145308 -0.283648 -0.086616
-0.819051 -0.051029 -0.046816
-0.237135 0.348537 0.368331
0.486245 0.748321 0.109845
0.709940 0.817791 -0.591790
-0.698607 0.014055 -0.299252
0.159658 0.592106 0.688166
0.231805 -0.314829 -0.252719
0.049486 0.546215 0.157608
0.409222 0.702914 -0.032202
-0.236411 0.253930 0.211819
-0.063292 0.375430 -0.255079
0.748393 0.134958 -0.332945
0.679841 0.021972 -0.084980
0.630907 0.101645 -0.501299
0.295943 0.686268 -0.206465
-0.474831 -0.401110 0.522999
-0.765383 -0.067983 -0.637913
-0.563359 0.084042 -0.105540
-0.391575 -0.229564 0.536877
0.766579 0.703199 -0.104287
-0.213347 0.299330 -0.455056
0.105703 0.553004 0.113021
0.542761 0.707078 0.438062
-0.420150 0.177478 -0.665188
0.075090 -0.289286 -0.350366
-0.689387 -0.570322 0.435139
0.697801 0.263658 0.614682
-0.969131 -0.362004 -0.211537
-0.223156 0.492161 0.303141
-0.612265 -0.710504 0.452949
0.851231 0.467562 0.561622
0.139612 0.693201 0.452281
0.686239 0.891759 -0.404384
-0.740237 -0.579820 -0.746106
0.222768 0.806159 0.399640
0.287237 0.645640 -0.666394
-0.028804 0.488393 -0.107808
0.215481 -0.231031 0.355806
0.875510 0.259219 -0.058549
0.906788 0.534938 0.333651
-0.053945 -0.362174 -0.714681
0.616252 -0.113767 -0.290869
-0.552501 -0.356818 0.513407
0.656105 0.064648 -0.648812
-0.134988 -0.695284 -0.463598
0.728260 0.170920 0.043388
0.793810 0.229741 0.601363
0.938348 0.490911 0.429423
-0.734356 -0.607359 -0.333813
-0.059469 -0.320196 0.053454
0.796681 0.611864 -0.429276
0.069264 -0.286002 0.095729
0.382648 0.762891 -0.197648
-0.250350 -0.800903 -0.687958
0.194408 0.271134 -0.652984
0.227250 0.804831 0.361505
0.382108 0.263393 -0.768580
0.686116 0.779123 -0.747018
-0.449095 -0.858990 0.262823
0.540155 -0.019074 -0.563217
0.481371 -0.188107 -0.073757
0.773733 0.672016 -0.712668
-0.101602 0.317417 0.648493
-0.303776 0.308059 -0.146206
0.471429 0.382323 -0.716713
-0.928150 -0.173439 -0.245388
-0.915856 -0.352166 -0.230252
-0.101925 -0.316417 -0.455750
-0.855151 -0.457437 -0.185151
-0.909475 -0.206787 0.216112
-0.064881 0.083783 0.710885
-0.371480 -0.353754 -0.734060
-0.094917 -0.209130 0.574694
-0.127482 -0.606620 0.453296
0.852686 0.219119 -0.090168
0.041570 -0.157023 -0.736765
-0.688755 -0.003233 -0.138792
-0.706029 -0.072944 0.429829
-0.924566 -0.224929 -0.190137
0.524485 0.819196 0.114523
-0.890913 -0.172547 0.047251
0.277736 0.754857 0.499353
-0.278858 0.193497 -0.685958
0.912314 0.315288 0.107918
0.634969 -0.036213 0.687277
0.148635 0.421663 0.670858
0.307512 0.057077 0.714833
0.902236 0.380353 -0.549896
0.170187 0.576646 -0.349044
-0.776538 -0.089153 -0.352160
0.553644 0.926742 -0.207513
0.312127 0.010444 -0.755495
-0.917494 -0.255525 0.213969
-0.592127 -0.195789 -0.737214
-0.291289 0.214316 0.374595
0.513179 0.178808 0.702645
0.494970 -0.153022 0.166543
0.309068 -0.125774 0.282301
0.299746 0.685175 -0.555899
0.649535 -0.085661 0.413514
-0.693758 -0.136405 -0.726765
-0.334937 0.254263 0.389290
0.587996 0.698721 -0.707329
-0.963308 -0.329214 0.134175
0.190448 -0.297557 0.083498
0.217473 -0.054409 -0.728207
-0.815927 -0.476250 -0.456527
-0.898965 -0.388209 -0.604468
0.023395 0.241862 -0.711355
-0.716758 -0.506771 -0.716127
0.939608 0.511768 -0.083479
-0.454806 -0.587955 -0.715877
0.656496 0.440105 0.578947
0.886783 0.257760 0.103847
-0.182091 -0.622973 0.438530
-0.698715 -0.608547 0.448059
0.340989 -0.174874 0.699685
0.846014 0.301213 0.217715
-0.261015 0.262640 -0.001362
-0.123084 -0.378028 -0.157581
0.097570 -0.293520 -0.557126
-0.434921 -0.223648 0.495762
0.462693 0.797382 -0.152693
0.412689 0.754304 -0.520777
0.669284 0.564884 0.649833
0.844077 0.254190 -0.472006
-0.746597 -0.088473 0.344538
0.613488 0.097945 0.299644
0.151413 -0.019786 -0.724293
0.190293 0.810174 0.458285
0.583395 -0.098240 -0.201093
0.931633 0.415460 0.241029
0.631537 0.883411 -0.654309
-0.127956 -0.460122 0.225432
-0.806044 -0.087293 0.181032
0.064338 0.606585 0.381118
0.872307 0.643553 -0.210328
0.784619 0.302541 -0.663333
0.247749 0.684089 0.069841
-0.570666 0.084519 -0.323893
0.763528 -0.022892 0.662702
0.128890 -0.313007 -0.147834
0.728389 0.093175 0.537973
-0.474089 0.018407 0.255575
0.282205 -0.147705 0.323810
-0.292631 0.347437 -0.269170
0.526361 0.860640 -0.612536
