0.338545 -0.246752 -0.448270
0.281122 0.691242 -0.362100
0.696149 0.204773 -0.686227
-0.547610 0.097704 -0.272409
-0.222855 0.312727 -0.689440
-0.837622 -0.086385 -0.025006
0.949958 0.364966 -0.541637
-0.940281 -0.267727 -0.592725
-0.788789 -0.087301 0.356310
0.227366 0.039864 -0.724459
0.124862 -0.255148 0.372894
0.191029 -0.340930 -0.041320
-0.815600 -0.282130 0.464948
0.598377 0.908994 -0.523384
0.495535 -0.144718 -0.176153
0.768924 0.735325 -0.504652
0.711527 0.449410 0.586238
0.638013 -0.029453 0.420769
0.800013 0.707055 -0.369331
0.016384 -0.272787 -0.644027
-0.478771 -0.848212 0.262305
-0.390968 0.227380 -0.133527
-0.188330 0.362492 -0.634369
0.192986 0.621308 -0.684027
-0.840974 -0.484648 0.356874
-0.271853 0.312403 -0.074378
-0.379461 0.002349 0.590533
0.239326 0.642555 0.660151
-0.591516 -0.801934 0.020567
-0.815829 -0.570210 -0.561668
0.312310 -0.125086 0.302534
-0.703621 -0.707749 -0.134086
-0.839912 -0.529812 -0.598996
-0.785117 -0.607802 -0.030430
0.231963 -0.086547 0.709463
-0.132895 -0.379574 -0.093435
0.738945 0.216023 0.495108
-0.726560 -0.061521 -0.643120
-0.358831 0.250399 -0.451888
-0.278879 -0.170445 0.684179
-0.320208 -0.287566 0.612152
-0.937884 -0.216889 -0.204095
-0.187385 -0.467784 0.124467
0.333872 0.717282 -0.165403
-0.182935 -0.816100 -0.465375
0.146405 0.590740 -0.682851
-0.814271 -0.544156 0.060388
0.893903 0.571575 0.014927
-0.381113 -0.394615 -0.729861
-0.599429 0.006540 -0.548956
-0.895285 -0.148959 0.078108
0.434093 0.489290 -0.721631
-0.252618 0.045694 0.638987
0.239013 0.023926 0.715173
0.737392 0.054607 0.662856
-0.237617 0.252591 -0.701484
-0.163500 -0.602697 0.013988
-0.814866 -0.575283 -0.555999
-0.674265 -0.705563 0.136678
-0.167400 -0.223494 0.694494
0.767589 0.241534 0.282676
-0.189406 0.333149 0.602657
-0.046970 -0.322635 -0.585774
-0.543956 0.104057 -0.099860
0.290232 -0.372009 0.583244
0.600634 0.903110 0.032256
-0.560625 0.060339 -0.122619
-0.410899 -0.133377 0.672364
-0.801854 -0.257062 -0.732481
-0.625299 -0.006337 -0.543159
-0.504002 0.155462 -0.471058
-0.230802 -0.525624 0.509215
-0.607746 -0.817522 -0.403381
0.712443 0.805000 -0.651434
-0.523407 0.097337 -0.706811
-0.788179 -0.076236 -0.321280
0.187770 0.629679 -0.024013
-0.604505 -0.713638 0.436762
0.431847 -0.284160 0.503646
-0.216862 -0.310250 0.512112
0.891520 0.563539 -0.132758
-0.336367 0.261316 0.019578
-0.257548 0.238968 -0.707470
0.387654 0.107359 0.732744
0.380623 -0.224274 -0.260286
0.800855 0.713496 0.339372
-0.499259 -0.475530 -0.720974
0.222391 -0.314537 0.623595
0.664687 0.028637 0.143154
0.377692 -0.106555 0.348642
-0.661810 -0.731912 0.062036
0.035156 -0.248955 -0.681335
-0.876164 -0.126806 0.134707
-0.843632 -0.120510 -0.332671
0.873989 0.338430 0.355190
-0.056589 0.478604 0.107130
0.298154 -0.231620 0.706557
0.258047 0.517258 0.692081
0.847782 0.352061 0.440152
0.753338 0.763959 0.084343
-0.087009 0.427338 -0.690646
0.698914 0.118301 -0.507652
0.264367 -0.102647 -0.704568
0.895360 0.562460 -0.466262
0.535264 0.651862 0.523571
-0.792490 -0.384930 0.457090
-0.591066 -0.810250 -0.617989
0.173526 0.779597 0.319937
-0.319488 -0.887660 -0.482015
0.439520 -0.068032 -0.621529
-0.797314 -0.385836 0.452772
0.464786 -0.130892 -0.575953
0.948746 0.450867 -0.134257
-0.153586 -0.036861 -0.717265
0.945663 0.417665 -0.047217
-0.188710 0.361569 -0.002533
0.377832 -0.077783 0.720667
-0.191819 -0.807435 -0.616956
0.632984 -0.034575 -0.413835
0.315130 0.325922 -0.719966
-0.176929 0.536577 0.318432
0.216927 -0.326942 0.450733
0.632286 -0.031463 -0.370594
-0.366699 -0.171358 0.677911
-0.693364 -0.042532 -0.034640
-0.242902 -0.900784 0.294643
-0.643820 -0.704281 0.396438
0.944220 0.571693 0.360279
-0.444310 -0.210751 0.515410
-0.565933 -0.843312 -0.489358
0.794953 0.063686 -0.282510
-0.147984 0.185229 0.570278
-0.241544 -0.515887 0.516867
0.354095 0.010723 -0.733462
0.252727 0.437480 0.727044
-0.005449 -0.024456 -0.724702
-0.663959 -0.273018 0.484083
0.246664 -0.208475 0.159830
-0.204931 0.080351 0.567437
0.710617 0.457219 0.596432
-0.206482 0.408482 0.613932
0.071639 0.638979 0.648742
0.844128 0.432425 0.457656
-0.608740 -0.419374 0.480661
0.397630 0.764705 0.000190
-0.499663 -0.821129 -0.701345
0.676707 0.868609 -0.390547
-0.542024 -0.345351 -0.725332
-0.155158 -0.411917 -0.287218
0.333708 0.577398 0.637421
-0.018695 0.482599 -0.521746
-0.829249 -0.560663 -0.166895
0.740955 0.331944 0.514030
-0.765538 -0.120462 0.442092
0.351761 0.733654 -0.490993
0.302123 0.455563 -0.726266
-0.293413 0.294922 -0.088727
0.504007 0.829621 -0.625291
-0.003894 0.322016 -0.720067
-0.459972 0.192314 -0.415228
-0.411760 -0.281498 -0.726200
0.426224 -0.277571 0.493010
-0.234746 0.029732 0.674157
-0.059444 -0.335870 -0.440667
0.437640 0.697634 0.261601
0.965068 0.577713 0.324033
0.175315 -0.196647 -0.617582
-0.554368 -0.815724 0.152199
0.832779 0.245125 -0.330793
0.701113 0.820205 -0.221079
-0.823239 -0.549938 -0.028827
0.505211 -0.139719 -0.169686
0.112235 0.574967 -0.462619
-0.565701 -0.354747 -0.717228
-0.133183 -0.392389 -0.527604
-0.036783 0.346896 0.690474
0.318233 0.739415 0.238296
-0.204031 -0.787167 0.068486
-0.687594 -0.717978 -0.623059
-0.451676 0.197416 -0.403130
-0.367741 0.239933 0.017456
-0.091469 0.597297 0.539374
-0.602689 0.011306 -0.456041
0.750479 -0.128322 0.601404
-0.213978 -0.131103 -0.729977
0.545988 0.890684 -0.401892
0.208089 0.001141 -0.727732
0.712505 0.793652 0.082418
-0.407512 -0.700518 -0.727884
-0.107192 -0.362164 -0.329049
0.424413 0.802559 -0.358013
0.583081 0.631150 0.556169
0.426267 -0.196085 -0.285320
0.222199 0.654393 -0.342573
0.046141 0.051262 -0.725467
-0.129257 -0.379319 -0.025521
-0.348650 -0.891782 -0.541741
-0.209554 -0.888285 0.230987
-0.040588 0.471876 0.695284
-0.769230 -0.058215 0.211197
-0.657235 -0.337932 -0.713877
0.885789 0.376113 0.374562
-0.818102 -0.307821 -0.738196
-0.655091 -0.409136 -0.718373
-0.539861 -0.705691 -0.734258
-0.865223 -0.395779 0.417238
-0.883132 -0.139332 0.127183
-0.196062 0.045743 0.591902
-0.159894 -0.742097 -0.655227
-0.088867 -0.358223 -0.260759
0.211199 -0.118365 0.703441
-0.388841 -0.111383 -0.731723
0.062483 -0.235008 0.439977
-0.519308 -0.254850 -0.729794
0.604751 0.921446 -0.181086
-0.732206 -0.668522 -0.047680
0.571066 -0.098594 -0.192951
-0.156865 -0.404989 -0.619303
0.187026 0.245227 0.729762
-0.208344 0.259235 0.445738
0.011120 0.499632 -0.115579
-0.586176 -0.638455 0.488833
-0.163684 -0.797725 -0.237245
-0.475659 0.110200 0.156640
-0.813992 -0.531175 -0.676980
0.366799 -0.096072 0.307091
-0.224111 0.279412 0.387010
-0.682630 -0.707654 0.054156
-0.455975 -0.092923 0.624873
-0.088317 0.567641 0.519594
-0.508908 -0.698338 0.487539
-0.233680 -0.848189 -0.503333
0.509328 0.856207 -0.167180
-0.905100 -0.202986 -0.664916
-0.156155 0.271998 0.606221
-0.428039 -0.394312 -0.726163
-0.021056 -0.125365 0.561043
0.141626 -0.277765 0.005185
-0.229072 0.513243 0.295237
0.312044 0.735745 0.195557
0.648116 0.885422 -0.051875
-0.234798 0.137075 0.523625
-0.958282 -0.404574 0.293729
-0.020569 -0.024236 0.619751
-0.433588 0.105002 0.212228
-0.015969 -0.307570 -0.477478
-0.596237 -0.674935 0.475380
0.780082 0.045659 -0.101569
0.576133 0.785158 0.310661
-0.570162 -0.003789 -0.712457
0.728523 0.782974 0.000053
-0.747120 -0.049644 0.051631
0.756925 0.112256 -0.016826
-0.154315 -0.513362 0.316661
-0.062684 0.612849 0.528631
0.961180 0.382190 -0.484335
-0.172624 -0.304891 0.499413
-0.606810 -0.201691 -0.733009
0.227326 -0.320987 -0.115097
-0.202954 0.034063 0.573576
0.507621 -0.252121 0.682847
0.438011 0.809786 -0.318521
-0.158227 0.343754 0.635363
0.409132 0.289153 0.723083
0.361638 -0.229599 -0.008332
0.378544 0.419182 -0.720571
-0.161054 0.557048 0.310991
-0.660144 -0.759565 -0.297170
-0.961491 -0.292152 -0.316974
-0.715023 -0.184180 0.472679
-0.138885 -0.623121 0.416151
-0.736334 -0.522317 0.443144
0.197707 -0.311628 -0.377988
-0.141591 -0.078082 0.686373
0.102414 0.567552 -0.500414
-0.116777 0.461435 0.684368
0.759753 0.744590 -0.481190
-0.706652 -0.021568 -0.349188
-0.739780 -0.047875 -0.030700
-0.816526 -0.575333 -0.209097
0.704265 -0.005838 -0.038048
0.084227 -0.263217 -0.479283
0.084110 0.009512 0.690019
0.488788 0.430213 0.653495
-0.203993 -0.471129 -0.428728
0.715003 0.177094 -0.577517
-0.178623 -0.864384 0.282859
0.100019 -0.245828 0.300473
-0.636635 -0.032126 0.297451
-0.947675 -0.277524 -0.193248
0.199352 0.541035 -0.710433
-0.207035 -0.890345 0.181661
-0.481128 -0.197202 -0.731809
0.510668 0.628223 -0.717120
0.491698 -0.264073 0.520466
-0.355803 -0.808009 -0.719185
-0.873881 -0.376398 0.406705
-0.837848 -0.142903 0.371123
-0.172890 -0.596302 -0.231435
0.691732 0.792097 0.206237
-0.102336 -0.632146 0.284362
0.516881 0.072329 0.727774
0.535698 0.867261 -0.040987
0.190112 0.505375 0.727914
-0.281229 -0.866423 -0.086939
0.550994 -0.098023 -0.389835
-0.298768 -0.802977 -0.716393
0.735836 0.430231 -0.720394
0.620888 0.646455 0.568462
0.546363 0.771032 0.271412
0.528436 0.028244 -0.686468
0.791362 0.091140 -0.260073
-0.267111 -0.867067 -0.307965
0.844446 0.354734 0.442498
0.550205 -0.253384 0.648241
0.338696 0.273870 0.725077
-0.131328 -0.391498 -0.243357
-0.421944 0.084386 0.377857
-0.081953 -0.771672 0.243019
0.199242 0.637800 0.072519
0.862969 0.614283 0.057852
-0.095462 -0.355803 0.022504
-0.310288 0.191493 0.388377
-0.135701 0.393153 -0.690500
-0.444409 -0.177688 0.543546
0.156849 0.380955 0.677599
-0.330477 -0.892984 -0.296574
-0.275653 -0.199709 -0.729697
-0.210750 -0.779425 -0.695473
0.863273 0.543319 -0.708171
0.394333 -0.222779 -0.514074
-0.069765 -0.347084 -0.084994
-0.098901 -0.348087 0.289442
-0.672023 -0.702793 -0.677453
0.803739 0.085178 -0.278218
0.298526 0.693680 -0.138575
-0.881416 -0.214443 -0.702553
0.786893 0.024055 0.484847
-0.950532 -0.256292 -0.239611
0.566509 0.439717 0.593475
-0.583728 0.029742 -0.000927
0.855682 0.296864 -0.472723
-0.427279 0.197326 -0.657836
0.302284 -0.160415 0.277468
0.362269 0.434477 -0.716734
-0.216644 0.305988 0.181163
0.126646 0.585514 -0.559332
-0.222727 -0.795071 -0.688743
0.912554 0.540641 0.391879
0.129148 -0.223246 0.223517
0.295868 -0.133287 -0.631279
-0.643325 -0.720889 -0.692853
0.402113 -0.130335 -0.592148
-0.493042 0.168321 -0.411615
-0.241115 -0.716440 -0.724383
0.480951 -0.156881 -0.250968
0.448482 0.814098 -0.158396
-0.473358 0.166946 -0.051611
-0.497255 -0.878548 -0.187533
-0.213879 0.524346 0.410736
-0.250317 0.316849 0.050762
-0.044204 -0.315004 0.225944
-0.644760 -0.060700 0.380405
0.175906 0.776991 0.445038
-0.570006 -0.186244 -0.733321
0.728668 0.201235 -0.640958
0.674273 0.028298 0.388729
0.607283 0.676390 0.505615
0.946805 0.417311 -0.593940
-0.507336 -0.855063 -0.652167
-0.187192 -0.281326 0.606169
-0.415532 -0.235482 -0.728147
-0.803205 -0.071237 0.071475
0.493242 0.591235 -0.721503
-0.907126 -0.191543 -0.647201
0.786377 0.280576 -0.621353
0.541100 -0.119332 -0.067434
0.313172 -0.146667 0.204520
0.604909 0.908519 -0.570585
-0.614581 -0.327750 0.483868
0.690729 0.842554 -0.333747
0.647438 -0.099524 0.471381
0.782919 0.026396 0.459716
0.042092 -0.218957 0.523368
-0.034404 0.225866 0.688621
0.503375 0.430547 0.645669
-0.139030 0.085079 -0.721367
0.562303 -0.089971 -0.385501
0.942734 0.344621 -0.326807
-0.107196 0.522989 0.380423
0.507498 0.647403 0.513578
-0.170424 -0.417108 -0.144887
-0.039987 -0.081576 0.574222
0.715222 0.003239 -0.241901
-0.467458 0.110253 0.139885
0.407734 -0.166935 0.182477
-0.153249 0.166000 0.553861
-0.004667 -0.318280 -0.113810
-0.706810 -0.057728 0.395286
-0.705329 -0.688444 0.020175
-0.913983 -0.386337 0.095221
0.308782 -0.251007 -0.151627
-0.338246 0.263825 -0.096488
-0.412303 -0.832301 0.389790
0.452292 0.659594 0.456183
0.228897 0.104624 0.721494
-0.742018 -0.149188 0.463075
-0.144176 0.398890 -0.109163
0.282744 -0.265050 0.076036
-0.756449 -0.071914 -0.638024
0.058013 0.651568 0.475982
0.050900 -0.305599 -0.193006
-0.885790 -0.461782 -0.596895
0.428181 -0.187554 0.012262
0.790759 0.182306 -0.155048
-0.285001 0.124746 0.487680
0.121792 0.567387 -0.080941
0.728531 0.015709 -0.210926
0.553119 0.076966 0.720189
0.535481 0.235986 0.693429
0.418222 0.087051 -0.720982
0.281173 0.186105 -0.726398
0.549318 -0.034895 0.375586
0.452671 0.815673 -0.266341
-0.588117 -0.031239 -0.716257
-0.047966 0.148493 -0.720135
0.310272 -0.115154 0.237695
-0.555485 0.016547 -0.716880
-0.220964 0.298805 0.160569
-0.544268 -0.804305 0.315802
-0.077013 -0.312147 0.362010
0.036873 0.510739 -0.365182
-0.183904 -0.528811 0.102290
-0.549127 -0.808702 -0.687292
0.039030 0.702468 0.294314
-0.419683 -0.613831 -0.722961
0.005777 0.582106 0.645132
0.822035 0.662374 -0.623825
-0.168634 0.159903 0.537505
-0.164692 -0.429227 -0.280640
-0.912857 -0.386200 0.161632
-0.933368 -0.217522 -0.601232
-0.933007 -0.199154 -0.517309
0.239932 0.128141 0.725659
0.120858 0.725916 0.604083
-0.287991 0.201249 0.274051
0.643441 0.115846 0.221074
0.737919 0.162060 0.081826
0.686287 0.854093 -0.353797
-0.865961 -0.240041 0.387741
-0.024056 -0.272858 0.395345
0.640939 -0.205833 0.639389
-0.448119 0.190803 -0.313498
0.775004 0.202544 0.080952
-0.259851 0.073340 0.558306
0.479288 0.838304 -0.147613
-0.822423 -0.086329 -0.551307
0.294348 0.751054 0.190180
-0.584485 -0.030992 0.392110
-0.313447 -0.884006 -0.501997
-0.272037 -0.811600 0.397958
0.727870 0.168095 0.147038
0.434127 0.674944 0.416583
0.848142 0.630544 -0.464207
-0.891985 -0.453647 -0.565839
0.381249 0.752438 -0.271973
-0.373364 0.079523 0.465991
-0.025917 0.583439 0.458576
0.785011 0.482787 -0.728900
-0.180152 0.357402 0.620288
0.443686 -0.174657 0.164915
0.652399 0.185198 0.652119
0.141965 -0.234022 0.326904
-0.408375 -0.046267 0.588555
0.476196 -0.158150 0.002747
0.782050 0.343977 -0.715674
-0.832493 -0.556291 -0.274068
0.649438 -0.019764 0.110132
0.491872 -0.199541 0.711179
0.595368 0.922865 -0.372557
-0.598023 0.013192 0.001361
0.280257 -0.226837 -0.525308
0.082955 -0.290141 -0.364293
0.396081 0.769691 -0.128158
0.451396 0.508101 0.645656
0.515548 0.842896 -0.009657
0.525472 0.239815 0.695628
0.291525 -0.265327 0.690185
0.063435 0.198962 -0.724367
-0.667272 -0.488393 -0.725908
0.825971 0.603710 0.435701
-0.197703 -0.892767 0.190628
0.498440 -0.135900 -0.494523
0.721182 0.129078 0.331794
0.475348 0.812883 -0.006528
0.422300 0.119143 -0.723170
-0.172013 -0.748462 0.418603
-0.067580 0.217339 0.670093
-0.385474 0.160714 0.151457
-0.908078 -0.429343 -0.509306
0.852335 0.631488 -0.158364
-0.243825 0.285004 0.255831
0.185380 0.624118 0.684890
-0.087391 -0.650936 0.259782
0.078605 0.693912 0.555462
-0.563931 -0.529377 -0.722555
-0.311232 0.192941 0.297403
-0.201140 -0.481816 -0.110360
0.939885 0.318231 -0.181224
-0.904723 -0.136830 -0.163884
0.507308 0.049827 -0.709439
0.544920 0.771179 0.233249
-0.780521 -0.080838 0.374874
0.097950 0.706261 0.364687
0.148859 0.667697 0.656289
-0.275666 0.403652 0.185469
-0.819721 -0.290665 0.461728
0.685557 0.816032 -0.675947
0.609262 0.060706 0.196296
-0.184907 0.289200 0.561208
-0.761796 -0.626966 0.036169
-0.048065 0.434878 -0.704947
-0.182406 0.336617 0.610871
0.671942 0.777401 0.404111
0.226725 0.360079 0.706140
-0.292162 -0.292471 -0.729465
-0.192064 0.546432 0.503663
0.561283 0.037143 0.257730
0.144433 -0.283639 0.498280
-0.039543 -0.158707 0.562363
0.113596 -0.208697 -0.655303
0.961819 0.431850 -0.157514
0.637982 0.486792 -0.727209
0.676935 0.093802 0.684256
0.897291 0.539417 -0.658550
-0.850964 -0.503266 0.012272
-0.191769 0.369064 -0.297400
-0.208584 -0.862591 0.336245
0.411442 0.784116 -0.406506
-0.418539 -0.296351 0.505115
-0.075992 -0.342801 -0.469506
0.796461 0.666101 -0.680328
0.590673 -0.081005 -0.282562
0.228598 -0.256277 0.369171
-0.441759 -0.870498 0.139092
-0.122327 -0.390677 0.096969
-0.081150 -0.176734 0.581400
0.408694 0.181321 -0.723076
-0.496154 -0.776162 0.431889
0.307132 -0.251246 -0.148704
-0.332597 0.264469 -0.006510
-0.412402 0.107046 0.350389
0.149782 0.604839 0.118043
0.291388 0.736933 0.193293
0.069799 -0.226051 -0.689032
-0.900884 -0.412117 -0.022187
-0.504856 -0.250176 -0.732078
0.077067 0.229134 0.713402
0.647136 -0.142857 0.504147
0.630588 0.061879 0.171178
0.712437 0.084897 0.663199
-0.143430 -0.400108 -0.538579
-0.244933 -0.148268 0.688498
-0.855380 -0.115691 -0.262444
0.516731 -0.234008 0.507598
-0.551520 -0.264666 -0.726877
0.840259 0.317316 0.413312
0.719023 0.641572 0.580500
-0.151104 -0.634968 -0.619644
0.796357 0.722521 0.066137
-0.897867 -0.367685 0.347655
-0.148899 -0.786762 -0.306915
-0.844598 -0.534778 -0.567593
-0.256383 0.130634 0.508186
0.193957 0.622429 -0.133143
0.288029 0.694700 -0.545076
-0.232493 -0.176656 -0.727153
0.748667 0.159648 0.051234
-0.882296 -0.141426 -0.295100
0.757250 0.215219 0.409089
-0.496668 -0.846997 0.170791
0.615500 -0.041199 -0.376004
-0.132247 -0.698379 -0.523064
-0.417465 0.200353 0.055134
0.919902 0.390362 0.228913
-0.890414 -0.396099 0.265903
0.014655 0.500223 -0.116671
0.743147 0.016592 -0.063334
0.250753 -0.220058 0.151905
0.686272 0.808007 0.121042
0.168752 0.002791 0.705954
0.007517 0.188393 -0.721566
0.012185 0.498878 -0.008350
-0.834502 -0.459550 0.389071
0.464332 -0.024645 0.244043
-0.128479 -0.116012 -0.721990
-0.106492 -0.364900 -0.655620
0.920679 0.520300 -0.448826
-0.645387 -0.632470 0.470264
-0.600488 0.015963 -0.266831
0.129419 0.750389 0.219076
-0.745685 -0.052382 0.080303
0.883102 0.355431 0.271755
-0.434104 0.011753 -0.722268
0.337811 0.178801 0.726224
-0.288969 -0.736163 0.452755
-0.274856 0.434142 0.182048
0.479595 0.745186 0.163946
-0.866332 -0.131119 -0.436856
-0.723139 -0.687650 -0.111749
0.953522 0.439597 -0.135912
-0.916014 -0.166552 -0.225652
0.924398 0.524021 0.382115
-0.859730 -0.127887 -0.447223
0.966850 0.397173 -0.197228
0.210927 0.639090 0.127639
0.477093 -0.154353 -0.406505
0.435466 0.716776 0.192735
0.206856 -0.332846 -0.103480
0.923626 0.498337 0.138235
0.204461 0.625925 0.067327
0.368596 -0.229862 -0.319639
-0.005226 0.227097 -0.727350
0.421601 0.786677 -0.522077
-0.286848 0.443199 0.291680
-0.166910 -0.607175 -0.635822
0.512573 0.343133 -0.726565
-0.616877 0.018659 -0.368240
-0.636397 -0.334478 0.477355
0.633992 -0.038904 -0.371696
0.370267 -0.229039 -0.263151
-0.085505 0.520497 0.363871
0.482518 0.829995 -0.060502
-0.566451 0.054258 -0.238058
-0.223528 -0.514933 -0.699252
-0.177802 -0.606026 -0.163902
0.747002 0.759933 0.147220
-0.730550 -0.647595 0.085235
-0.159622 -0.068014 -0.720271
0.161617 -0.243434 0.147343
-0.150089 -0.756791 -0.179603
0.172274 -0.292506 0.010781
0.927775 0.508820 0.031963
0.497545 0.861262 -0.281134
-0.679337 -0.255524 0.480840
0.272070 0.678482 -0.105195
0.106331 0.000995 -0.727977
-0.435995 -0.751026 0.463889
0.236388 -0.191958 -0.551593
-0.233494 -0.459773 -0.710732
0.468382 0.813596 -0.509450
-0.203722 0.532638 0.544711
-0.906901 -0.326861 0.277731
-0.353070 -0.535305 -0.728032
0.874633 0.315834 -0.670245
-0.263638 0.127803 -0.730596
0.555791 0.646863 -0.718710
-0.782498 -0.565921 0.236120
-0.031835 0.424874 -0.705153
-0.670238 -0.026149 -0.208700
-0.183222 -0.547053 -0.585476
-0.194718 -0.535590 -0.472104
-0.865709 -0.129701 0.274842
-0.542806 -0.852764 -0.586167
0.806405 0.264547 0.205299
0.297740 -0.229201 0.384868
-0.796712 -0.087259 -0.302166
-0.527602 -0.394462 -0.721650
-0.518486 -0.537667 -0.728687
-0.077747 0.445407 -0.337243
-0.884331 -0.441441 0.072809
0.956306 0.373026 -0.138549
0.300875 0.707881 -0.047175
0.018867 0.717403 0.237315
0.196967 -0.194234 -0.614447
0.525070 0.872467 -0.532115
0.290743 -0.266420 0.033152
-0.282326 0.427415 0.484525
-0.423095 -0.786580 -0.723512
-0.145181 0.557579 0.565068
-0.243953 0.499484 0.376902
-0.158537 -0.770445 0.404551
-0.228140 0.280312 0.212561
-0.229483 -0.281633 0.571534
0.420618 -0.349439 0.574831
-0.880364 -0.134864 0.075047
-0.244185 -0.720054 0.447992
0.598854 0.763148 0.398590
0.920328 0.516226 -0.479940
0.219652 -0.341563 -0.149085
0.276272 -0.277838 0.032062
0.937576 0.484120 -0.283470
-0.341828 0.067848 -0.709961
0.933513 0.402539 0.178010
0.883845 0.577861 -0.401419
-0.527944 0.131461 -0.223665
-0.947538 -0.235702 -0.241985
0.118829 0.722494 0.409467
0.765197 0.173427 -0.394477
0.020365 -0.280714 0.112464
-0.079943 0.251961 0.658086
0.762862 0.542904 0.594058
0.763702 0.327157 -0.709524
-0.841542 -0.555895 -0.349310
-0.158676 -0.259068 0.634637
-0.122314 -0.363629 0.275596
-0.670968 -0.748249 -0.217068
0.274102 -0.237466 0.135480
0.713922 0.807574 -0.125778
0.589978 0.482977 0.583326
0.120195 -0.259309 0.521181
0.026383 0.673246 0.581193
-0.230320 -0.464066 0.504718
-0.238098 0.480542 0.534160
0.332940 -0.248914 -0.193623
0.496745 -0.140800 0.090074
0.083105 0.658750 0.349731
-0.134933 -0.059449 -0.717883
-0.836691 -0.219831 -0.725272
0.149769 0.597013 -0.001217
0.704126 0.823917 -0.321711
-0.447482 -0.709498 -0.728506
0.124247 0.751806 0.190077
-0.670064 -0.046968 0.304498
0.920875 0.317096 -0.070415
-0.149631 0.556664 0.572971
-0.143239 -0.783368 -0.280723
0.724408 0.095147 0.079437
-0.844967 -0.110311 -0.627059
0.666989 0.614791 -0.732578
-0.945975 -0.327510 -0.187219
0.367214 0.702203 0.261872
-0.504351 -0.135847 0.512182
-0.261899 0.349124 0.342745
-0.120979 -0.371364 -0.047438
0.904948 0.528100 0.400414
-0.334855 -0.885602 -0.530251
-0.494525 0.160215 -0.268635
0.509851 0.705622 -0.710133
-0.177129 -0.604100 -0.137573
-0.155396 -0.787688 -0.498708
-0.560572 0.068154 -0.513866
-0.169992 -0.319837 0.476356
0.612532 -0.066321 -0.016501
0.665262 -0.027798 0.035983
-0.333572 -0.885683 -0.157287
0.459047 0.796893 0.031456
-0.852004 -0.473119 0.362669
-0.099000 0.418944 -0.433777
0.522056 0.700092 0.440442
0.132705 0.573066 0.101209
-0.020226 -0.291432 0.257741
-0.349011 0.207121 0.120712
0.692591 -0.102975 0.687166
0.098556 -0.242336 0.284766
-0.225648 -0.810827 0.083569
0.389580 -0.278812 0.473205
0.064940 -0.245884 0.273575
0.896686 0.555496 -0.296654
-0.171155 -0.603470 -0.233310
-0.423406 -0.070723 0.659447
-0.451754 -0.694203 0.494050
0.485502 0.821265 -0.030966
-0.778156 -0.068832 -0.193067
0.608086 0.916490 -0.351077
0.257317 0.373331 -0.721524
0.301086 -0.113918 -0.682170
-0.923721 -0.359278 0.171359
-0.155067 -0.753748 -0.125876
-0.239526 0.467672 0.532427
-0.428220 -0.898268 -0.493363
-0.721734 -0.064403 -0.691280
-0.093633 0.456916 0.691070
0.356554 0.697819 -0.712824
0.669531 0.862391 -0.256068
0.200462 -0.217523 0.163287
-0.166785 -0.417021 0.071105
-0.824084 -0.306213 -0.735948
-0.066608 0.270596 0.668548
0.421545 0.713371 0.207272
-0.866572 -0.495384 -0.115918
0.405501 0.778376 -0.608125
-0.250462 0.487772 0.379557
0.300976 0.376867 -0.724416
0.949346 0.360526 -0.329958
-0.107253 -0.691254 0.380131
-0.883688 -0.145683 0.233865
-0.042980 0.372885 -0.712325
0.825538 0.668767 -0.057764
0.792846 0.711264 -0.017803
-0.016168 -0.097666 0.578070
0.677725 -0.017398 0.427583
0.518735 0.843411 -0.605375
-0.203564 -0.503017 -0.238065
0.119544 -0.152771 0.655878
-0.188320 -0.874945 0.251112
-0.206506 -0.510344 -0.677579
-0.295342 0.176281 0.436556
0.824119 0.648030 0.202170
-0.804441 -0.163261 0.439189
0.012445 0.511759 -0.642926
-0.186378 0.358820 -0.389274
-0.266380 0.352130 0.259422
0.298153 -0.042867 -0.723273
-0.655143 -0.717785 0.253635
0.532502 0.737646 -0.706524
0.089735 0.700040 0.385755
-0.482581 -0.843321 0.283681
-0.036617 -0.206082 0.538910
-0.387062 0.112038 0.396317
0.852757 0.310662 0.243421
0.724001 0.010111 -0.192694
-0.760568 -0.058110 -0.240679
-0.182325 -0.823438 -0.259799
-0.742785 -0.653349 -0.036653
-0.072030 0.436775 -0.067694
0.306745 -0.248689 -0.505894
-0.147310 0.431478 0.656994
-0.120999 -0.622911 0.385141
-0.190835 0.363076 -0.339559
0.634980 0.884015 0.032013
-0.112702 -0.828455 0.238846
-0.192598 -0.405848 -0.683348
-0.386456 -0.641190 0.526414
0.520936 0.005345 0.218830
-0.171083 -0.576903 -0.555312
-0.782986 -0.555339 0.348175
-0.527001 0.123151 -0.156974
0.589713 -0.066331 -0.381191
0.676877 0.731917 -0.726294
0.217180 -0.279670 0.068865
-0.289217 -0.285753 0.642000
0.648042 0.379287 -0.723021
-0.946480 -0.405432 0.370669
-0.702078 -0.488750 -0.727000
0.304094 -0.102710 0.720801
-0.132672 -0.340111 -0.721778
-0.429344 0.072054 0.380663
0.887902 0.379311 0.322442
-0.282761 0.164958 -0.723795
0.559092 0.291248 -0.725514
0.050633 0.557785 0.131534
-0.232057 0.507006 0.253227
0.029101 0.383411 0.704180
0.199799 -0.345981 -0.174069
0.214298 0.039422 -0.724755
-0.381500 0.145133 0.309324
0.931410 0.494056 -0.110639
0.926002 0.413609 -0.678061
-0.790187 -0.062636 0.035603
-0.269952 0.366835 0.349045
-0.857531 -0.493625 -0.631806
0.491283 0.301399 -0.725311
-0.470185 -0.848937 -0.681120
0.190715 0.628601 0.029559
0.520171 0.853244 -0.557564
0.275400 0.691315 -0.048855
-0.351590 -0.816698 0.395465
0.351691 -0.038766 0.725991
0.046156 -0.155021 0.594633
-0.946001 -0.235612 -0.545431
0.675056 0.106436 0.681013
0.114237 -0.305727 -0.259120
-0.410783 0.217439 -0.101645
-0.895259 -0.403581 -0.683213
0.157714 0.627636 0.683661
-0.474169 0.042089 0.347241
-0.518010 -0.017208 0.449774
0.327148 0.718053 0.028696
-0.082370 0.242064 0.657524
-0.546255 -0.798017 -0.700588
-0.150629 -0.400789 0.257910
0.602942 -0.062748 -0.413422
-0.248674 0.244713 0.173877
-0.221710 0.120111 0.536028
-0.524339 0.133635 -0.530797
0.399751 0.685638 0.265246
0.234235 0.358759 0.706393
-0.228345 -0.612327 0.482076
-0.435756 -0.104030 0.661018
0.091773 -0.176762 0.612327
-0.455957 -0.895154 -0.465642
-0.686167 -0.038260 -0.583984
-0.690293 -0.664602 -0.697463
-0.134977 0.395527 -0.437328
-0.205050 0.332205 0.573932
-0.144363 -0.799027 -0.296527
-0.199455 -0.512308 0.064756
-0.153869 -0.358037 -0.715582
-0.139942 0.586427 0.280711
-0.246865 0.139989 0.505263
-0.793682 -0.603014 -0.203032
0.667524 0.793240 -0.703813
0.476196 0.571000 0.574028
0.918759 0.507373 0.213192
-0.770549 -0.061577 0.116916
-0.058199 -0.337975 -0.245181
-0.277280 0.381735 0.384757
-0.056561 0.455992 0.119668
-0.302797 0.282798 -0.621854
-0.037462 -0.301856 0.291163
0.733778 0.187822 0.162220
-0.577973 -0.829950 -0.512550
-0.629407 -0.632226 0.476777
-0.887545 -0.400340 0.223403
-0.886904 -0.148747 -0.307981
0.604697 0.906098 -0.060529
0.558194 0.892822 -0.496258
0.074614 0.329898 -0.724697
0.508549 0.213381 0.705245
0.695607 0.835558 -0.419576
0.353042 0.719617 0.216953
-0.917040 -0.243595 0.197350
-0.600690 -0.010138 0.282601
-0.785984 -0.552749 0.327193
0.467339 -0.212959 0.465067
-0.651683 -0.314568 -0.715540
0.245594 -0.214226 0.148766
-0.950436 -0.315044 -0.409538
-0.640912 -0.300374 -0.716690
-0.498206 -0.308637 0.486251
-0.245451 0.322751 0.001489
0.844731 0.311772 0.371201
0.905212 0.528138 0.190076
0.388752 -0.131075 -0.594907
0.637016 0.793860 0.359987
-0.120734 0.406951 -0.414335
0.455980 -0.168561 -0.517046
-0.854999 -0.459411 0.248463
-0.660515 -0.751295 -0.115089
0.066427 -0.014090 0.677170
0.607088 -0.025790 -0.547081
-0.384952 -0.827382 0.395391
-0.577886 -0.836871 -0.108540
-0.697131 -0.009872 -0.374878
-0.536193 -0.270283 -0.730496
-0.312647 -0.881437 -0.534166
0.586449 -0.070700 0.171430
-0.155065 0.200202 -0.724949
-0.221706 0.285196 0.224789
0.310271 -0.213956 0.369051
-0.777511 -0.071600 -0.360397
-0.281580 -0.919470 0.227989
0.897072 0.329030 0.074466
-0.034349 -0.184021 -0.723881
-0.273924 -0.282620 0.665133
-0.319854 -0.875404 -0.599537
-0.744192 -0.671209 -0.457160
-0.620315 0.005920 0.050225
0.392531 0.539189 0.642802
-0.218970 -0.316802 -0.728988
-0.101058 -0.070649 0.609769
0.661891 0.069544 0.334832
0.636493 -0.048565 -0.485230
0.774746 0.268443 0.352892
0.277653 -0.269848 -0.073343
0.602142 0.647308 0.560051
-0.162012 -0.808076 -0.322679
0.732167 0.010033 -0.177863
-0.509588 0.139561 -0.106897
0.850119 0.639711 0.010235
-0.405679 -0.898886 -0.387058
-0.086043 -0.291732 -0.720680
-0.563881 0.032662 0.099935
-0.764719 -0.058928 -0.457469
-0.828805 -0.466085 -0.711686
-0.410780 0.199318 0.077598
-0.306679 0.280743 -0.069885
-0.159172 -0.417327 -0.282901
-0.728465 -0.626967 0.343226
-0.171737 -0.605505 -0.343751
-0.639931 -0.786946 -0.378354
-0.928964 -0.184538 -0.225427
-0.711516 -0.657227 -0.689586
0.881316 0.588346 -0.093337
-0.123658 0.410255 -0.385984
0.664145 0.165766 -0.665798
-0.274559 -0.837217 0.031538
0.963806 0.398631 -0.269366
0.391513 -0.208389 -0.028975
-0.395077 -0.881327 0.285556
-0.284227 -0.862203 -0.582630
0.237931 -0.318294 -0.372491
0.714417 0.791619 -0.669797
0.150279 0.597715 -0.048026
-0.142556 -0.547462 0.300176
0.460667 -0.165271 -0.080424
-0.299556 0.290909 -0.394205
-0.393318 -0.847431 0.371191
0.630957 -0.069271 -0.495932
-0.559021 -0.136330 -0.730230
-0.417737 0.203034 -0.001935
-0.143327 -0.549434 0.283298
-0.856387 -0.516230 -0.567316
-0.198173 -0.500062 -0.029614
0.902664 0.550374 -0.464348
-0.156272 -0.779475 -0.549953
-0.603254 0.003564 -0.157350
0.094441 0.559268 0.673962
-0.552486 0.111862 -0.666902
-0.149906 -0.156812 -0.725479
0.911493 0.568085 0.290837
-0.154261 -0.407049 -0.320315
-0.153837 -0.580297 0.121724
0.380090 0.413663 0.709345
-0.316079 -0.437479 -0.728700
-0.739586 -0.047272 -0.432228
-0.481917 -0.690622 0.493660
-0.365740 -0.273768 -0.728668
-0.563758 -0.154177 -0.730811
0.266592 0.190904 0.728747
-0.378294 -0.876735 -0.080305
-0.177383 -0.568032 -0.606726
0.296831 -0.125665 0.718291
-0.543425 -0.140969 -0.728660
0.585492 -0.090603 -0.236130
0.755318 0.749289 -0.546762
-0.100268 0.141509 -0.718945
-0.022508 0.634313 0.140243
0.020161 0.506033 -0.260614
-0.837459 -0.517566 0.053791
-0.151983 -0.666734 -0.123164
-0.606745 -0.573787 -0.731007
0.266211 0.788631 0.341647
0.848702 0.262714 -0.051720
-0.312795 -0.866847 -0.633089
0.467915 0.696492 0.371148
0.214494 0.789336 0.445786
0.750955 0.055624 -0.058955
-0.121660 -0.382905 0.160896
0.169172 0.741491 0.157880
0.961374 0.395311 -0.454198
-0.916093 -0.175199 -0.256857
0.591985 0.921443 -0.173492
-0.795668 -0.096889 0.383217
0.454432 -0.037046 0.307227
-0.555011 -0.706872 0.471014
0.374382 0.498881 0.680388
-0.409648 -0.621186 0.526838
-0.253210 0.035102 0.637899
-0.170752 -0.779460 -0.602807
-0.702675 -0.044294 -0.579147
0.568766 0.892795 -0.095922
0.889714 0.551705 0.134780
0.401904 0.552676 0.630569
0.095414 0.559104 -0.460329
-0.085378 0.625421 0.234729
0.842992 0.533575 -0.720412
0.498220 -0.080476 -0.584030
0.753402 0.197478 0.119427
-0.070841 0.446031 0.710234
0.690971 0.653571 0.532727
0.691425 0.835510 -0.138449
0.591454 -0.077797 0.063935
-0.706873 -0.063700 -0.693327
0.734545 0.176450 0.132486
-0.189521 0.044978 -0.720908
0.927445 0.509131 0.036573
-0.296491 -0.717949 0.466195
0.525802 -0.131928 -0.053151
-0.244056 -0.894236 0.162624
-0.413311 0.209541 -0.597620
-0.688949 -0.041363 -0.028038
-0.782199 -0.575254 -0.673313
-0.451248 0.148799 0.115466
0.338356 -0.178446 -0.571363
-0.102871 -0.618416 0.220612
-0.492425 -0.422485 0.493233
0.381026 0.092258 0.731026
0.162394 -0.293449 0.414083
0.568566 -0.084036 -0.385375
0.656099 0.050829 0.152047
-0.554695 0.102477 -0.084470
0.694112 0.801194 0.142256
-0.549205 -0.549638 -0.724706
-0.873000 -0.120840 0.025507
-0.719745 -0.045003 -0.060123
0.331467 -0.102003 -0.668802
0.726250 0.789689 -0.038034
-0.582985 0.025777 -0.390310
-0.067141 0.442100 -0.455263
0.160990 -0.300897 -0.368262
0.568500 0.052257 -0.652059
-0.270667 0.371521 0.384145
-0.945201 -0.265676 -0.119762
0.793943 0.698767 -0.509138
0.598575 0.526688 -0.730276
-0.515867 -0.839187 0.061211
-0.184900 -0.426776 -0.631134
-0.559331 0.029005 0.233563
0.691633 0.091449 0.125805
-0.662941 -0.495619 -0.725652
-0.767767 -0.061081 0.126551
0.881884 0.274861 -0.287261
0.276541 0.686174 -0.442943
0.777489 0.731146 -0.081330
-0.868939 -0.242822 -0.719521
0.491136 0.575620 0.555335
-0.949575 -0.297002 -0.152530
0.934193 0.481777 -0.011057
-0.102623 0.298599 0.650662
-0.376496 -0.248412 0.647169
0.801284 0.617311 0.456597
-0.711067 -0.285617 0.478127
-0.730460 -0.537992 0.441198
-0.067342 -0.320208 0.312709
0.188049 0.249243 -0.692348
-0.858759 -0.197328 -0.720174
-0.462908 0.052751 -0.716249
-0.173888 0.366367 0.125236
0.724163 0.119042 0.629357
-0.158435 -0.804722 -0.270234
-0.202021 -0.501616 -0.248820
-0.207292 -0.804003 0.090064
0.041591 0.624484 0.466297
-0.136348 -0.718929 -0.386925
0.364798 -0.229398 -0.150604
0.782813 0.723080 -0.032922
0.357234 0.446291 -0.717271
0.107011 0.724038 0.611103
0.719363 0.698872 -0.712651
0.601268 -0.065793 -0.489474
-0.318056 -0.289739 0.611448
-0.176202 -0.578028 0.012523
-0.548439 0.094178 -0.207978
0.068807 0.540958 -0.277730
0.479417 -0.157988 -0.510979
-0.358589 -0.606102 -0.726163
0.438185 -0.041740 0.317997
0.564379 0.094975 -0.696422
0.759357 0.747253 -0.481881
0.588661 -0.083283 -0.034897
0.753287 0.146110 -0.380982
-0.040548 -0.043095 0.593789
0.606253 0.632027 0.561958
0.239377 0.663957 -0.641750
0.759449 0.676483 0.463667
0.172757 0.789926 0.469218
0.493722 0.270869 0.700326
-0.151101 -0.397419 -0.366039
0.652860 -0.196181 0.660805
0.369097 0.746537 -0.127721
-0.686140 -0.037161 0.117049
0.120685 0.752935 0.292211
0.475850 0.733210 -0.704815
0.894623 0.565274 -0.427246
-0.615090 -0.814316 -0.331457
-0.011989 0.104873 -0.719426
-0.485984 0.161444 -0.604908
0.206285 0.644570 -0.345749
0.243596 0.663258 -0.537843
-0.861731 -0.366267 0.430200
-0.882813 -0.437292 0.160404
-0.230467 -0.726691 0.431328
0.135516 0.484059 -0.718164
0.152741 0.606202 -0.304480
-0.303627 -0.510737 0.532368
0.686114 0.856570 -0.387674
-0.005749 0.584833 0.645849
-0.277250 0.473079 0.199033
0.462593 0.470292 0.653260
0.156209 -0.317453 -0.057115
0.367569 -0.145808 0.368260
-0.555589 -0.859866 -0.381293
-0.571682 -0.844852 -0.395688
-0.105879 0.409519 -0.652430
-0.938359 -0.308925 0.123440
0.706202 -0.082261 0.492638
0.620204 -0.188467 0.684293
-0.267655 0.219907 0.279324
0.842152 0.278848 -0.613058
-0.330573 0.264172 -0.122450
0.753233 0.612338 0.556026
-0.566597 -0.065675 0.479480
0.539478 0.405638 0.627116
0.562585 0.156991 -0.715767
-0.165488 -0.425049 -0.219052
0.553972 0.900527 -0.512516
-0.570844 0.040321 -0.027599
-0.734318 -0.655408 -0.661531
-0.288437 -0.759042 -0.709009
0.650446 0.442190 0.572588
-0.799728 -0.088563 -0.642653
0.423370 0.151570 -0.721831
0.838708 0.653161 -0.257534
0.955503 0.339733 -0.182461
-0.202161 0.359004 0.088279
0.043811 -0.239281 -0.665172
-0.512744 -0.161810 0.514952
-0.574371 -0.832868 -0.517100
0.086252 -0.046785 -0.725027
-0.185093 -0.334989 0.474746
0.683389 0.841053 -0.608601
0.250995 -0.147750 0.711803
-0.319218 -0.886859 -0.205837
-0.925765 -0.350518 -0.635849
0.612462 -0.061537 -0.172445
-0.970851 -0.406757 0.317890
-0.810048 -0.590869 -0.091389
-0.258778 0.315678 -0.163260
-0.548561 -0.826744 0.056787
0.275690 0.485907 -0.726495
0.787961 0.261982 -0.622388
0.750769 0.650280 0.529940
-0.554511 -0.809924 0.174534
0.553297 -0.131162 0.709101
-0.783557 -0.624844 -0.505821
0.437094 0.227669 0.720509
0.911685 0.537027 0.248808
0.535105 0.001250 -0.645661
0.466416 -0.243025 0.487458
0.857493 0.307685 -0.680127
0.111066 0.753141 0.207727
0.567996 0.120312 -0.703946
0.609171 -0.064567 -0.050139
-0.361279 0.245684 -0.407757
0.592597 0.617935 0.567317
-0.209568 -0.504329 0.492151
-0.668018 -0.714793 0.099990
0.650695 0.510136 0.610814
0.030189 0.511010 -0.520240
0.709207 0.177464 0.269311
0.386802 0.292764 -0.723012
0.111505 0.645028 0.655632
-0.775398 -0.068794 -0.496842
0.562214 -0.101972 -0.255292
-0.474322 -0.393928 0.495018
0.237621 0.658792 -0.613475
0.919811 0.519506 -0.260701
0.297163 0.698938 -0.319029
0.610341 0.901773 -0.494074
0.517052 -0.269909 0.532056
0.470151 -0.008334 -0.694389
0.398929 0.066090 -0.722236
-0.553651 -0.597730 -0.732389
-0.860659 -0.123273 0.265156
0.631472 0.099056 0.245996
0.734711 0.094382 -0.421929
0.259822 0.003896 -0.728969
0.217289 -0.181508 -0.628400
0.910529 0.347508 0.082326
-0.413520 0.213123 -0.117078
-0.114437 -0.193170 0.653426
0.826259 0.287999 0.271526
0.044374 0.743187 0.210155
-0.479177 0.080846 0.193685
0.345629 0.044892 0.729753
-0.115296 0.568671 0.504188
0.131068 0.494999 0.702319
0.820426 0.226179 -0.115257
-0.020300 0.632830 0.520463
0.500225 0.757059 0.117098
0.123677 -0.214396 -0.632978
-0.171822 0.032710 0.571165
-0.770376 -0.065707 -0.480292
0.775778 0.066544 -0.336237
0.515342 0.749691 -0.706073
-0.678726 -0.612629 0.453826
0.067872 -0.162830 -0.718487
0.459243 -0.169543 -0.159144
0.775850 0.033099 0.460189
0.626454 0.091451 -0.620310
-0.198730 -0.437149 -0.649016
-0.570332 0.032151 0.096280
0.026960 0.115046 -0.720990
0.066485 0.707816 0.506441
-0.571490 0.051483 -0.413943
-0.093757 -0.114791 0.575542
-0.787957 -0.066333 0.070729
0.503052 0.460149 -0.728603
0.163992 0.589687 0.083194
-0.591678 -0.823124 -0.182230
0.392489 0.760089 -0.219267
-0.595486 -0.321863 0.484796
-0.278149 0.297162 -0.596949
0.879435 0.586073 -0.306569
0.098895 -0.200374 0.599443
0.784182 0.727360 -0.325220
0.310199 0.702273 -0.153397
-0.131239 -0.657844 0.405017
0.162824 0.606899 -0.047031
0.547801 -0.227889 0.699384
-0.126996 0.041226 -0.719024
0.455047 -0.273738 0.507381
0.546184 0.890017 -0.232226
0.120769 0.470756 -0.717756
-0.116288 0.420250 0.102873
-0.185280 0.532557 0.380110
0.135933 0.594426 -0.369539
-0.218980 -0.845052 -0.312681
-0.323114 0.031186 0.656695
0.338558 0.720308 0.196737
-0.688802 -0.736176 -0.474996
-0.836004 -0.181397 0.418038
-0.854206 -0.512983 -0.092480
0.248591 0.147338 0.729148
-0.094532 0.413149 0.091186
-0.564235 -0.417077 -0.725257
-0.056132 -0.280340 -0.717900
0.118529 -0.249343 -0.501762
-0.338456 0.257173 -0.257242
0.457696 -0.167267 -0.089285
-0.143815 -0.555357 0.350995
-0.717483 -0.700367 -0.401500
0.098062 0.737672 0.331342
0.520318 0.543074 0.572514
0.814865 0.690779 -0.357849
0.148124 -0.273106 0.559446
0.515858 0.871657 -0.418231
0.368205 -0.323408 0.670162
-0.352631 -0.348201 0.508976
-0.154408 -0.393708 -0.412891
0.300763 -0.258016 0.407267
-0.067854 0.442506 0.107921
-0.502053 -0.785725 -0.716591
-0.364337 -0.896634 0.139838
0.684494 0.853359 -0.333187
0.923676 0.505762 -0.373080
0.687661 0.160064 0.238150
-0.036885 0.565985 0.405697
0.795376 0.101863 -0.189147
-0.084312 -0.355781 -0.254604
0.075091 0.074780 -0.728032
-0.605498 0.003569 -0.169838
0.282522 -0.366539 0.508085
0.301397 0.708245 -0.487061
0.878406 0.590040 -0.220764
0.580097 -0.071013 -0.410510
0.530146 0.048697 -0.710392
0.163728 -0.144569 -0.706123
0.240387 -0.279578 -0.436726
-0.461334 -0.127921 0.592326
-0.165875 0.575449 0.523553
-0.234864 0.230948 -0.707853
0.138520 -0.273747 0.546381
-0.063321 0.444755 -0.117115
0.832381 0.280169 -0.608748
-0.375702 0.150814 -0.705534
-0.330353 0.265607 -0.147364
0.256456 -0.110491 -0.704986
-0.338032 0.268538 -0.613862
-0.379678 0.066129 0.472885
-0.928787 -0.179859 -0.396706
-0.364235 0.246615 -0.144989
-0.369006 0.247420 -0.619465
-0.062916 0.400927 -0.701454
-0.191654 -0.456017 -0.214718
0.134406 -0.279982 -0.383294
-0.543416 0.108688 -0.182457
-0.919150 -0.202614 0.112525
-0.883205 -0.391302 0.378872
0.739345 0.030765 -0.236350
0.860714 0.330053 0.316897
0.457124 0.806656 -0.601565
0.096782 0.076433 -0.727827
-0.935804 -0.371811 -0.461484
-0.793689 -0.605462 -0.054572
0.080843 0.247382 -0.728053
0.168105 0.331464 -0.707951
0.255194 -0.355296 0.504267
0.858816 0.349826 -0.714430
0.434395 0.534956 0.632221
-0.470638 -0.538229 -0.725620
0.837631 0.307534 0.317958
0.019995 0.278784 0.704431
0.234860 -0.235591 -0.497378
-0.119085 -0.383552 0.126245
0.077356 0.730208 0.263467
0.234867 0.496110 0.709906
-0.030481 0.633487 0.596461
-0.132536 0.614482 0.211717
-0.726024 -0.694388 -0.241097
0.644682 -0.117234 0.483880
-0.162779 -0.624883 -0.048568
-0.092269 0.262244 -0.727485
0.337890 0.651992 0.572112
-0.144377 -0.846895 0.202642
-0.944026 -0.220744 -0.254776
0.293128 -0.268231 -0.200087
0.774885 0.110167 -0.344935
-0.259593 -0.868377 -0.447532
-0.640006 -0.267422 0.486150
0.512873 -0.129299 -0.490435
-0.159944 -0.771977 -0.575458
0.460338 -0.061097 0.353419
-0.363900 -0.261552 -0.730966
-0.117073 0.525402 0.336235
0.262654 -0.248368 0.690032
0.930200 0.582082 0.303285
-0.159433 -0.789323 -0.528032
0.368276 0.150363 0.729478
0.262079 -0.342307 0.638091
0.535536 -0.229364 0.694893
0.493786 -0.141959 -0.374340
-0.241641 0.233235 0.344751
0.651914 -0.013551 -0.531394
-0.296568 -0.584575 -0.726630
0.111189 0.572134 -0.256835
0.758403 0.028225 -0.128009
-0.342654 0.053381 0.548522
0.894211 0.545412 0.413069
-0.431397 -0.176979 -0.729638
0.447977 -0.064204 0.235090
-0.230250 0.249240 0.330433
0.171555 0.062794 0.712585
-0.440220 -0.883229 -0.104776
-0.384626 -0.150604 -0.732562
-0.203470 -0.825379 -0.411321
0.829749 0.545308 -0.721029
0.588333 0.077210 -0.632722
-0.780684 -0.054473 -0.093153
0.348657 0.460129 -0.719325
-0.526081 -0.517604 -0.724998
-0.101311 -0.374498 0.078367
-0.348999 -0.635853 0.527060
0.800625 0.266651 -0.622305
-0.676052 -0.730031 -0.635256
0.097942 0.263586 0.712592
-0.246309 0.052716 0.635803
0.798584 0.707652 -0.049658
0.205244 0.360541 0.693910
0.772430 0.729729 -0.506884
-0.469228 -0.689087 0.495449
0.769211 0.683237 -0.695998
0.198870 -0.252980 0.108032
-0.780926 -0.615002 -0.611387
-0.274232 -0.921887 0.218069
0.440832 0.423627 -0.720254
0.143293 0.694703 0.158167
0.127776 0.572923 0.693130
0.671417 0.107891 0.684147
-0.708967 -0.601339 0.431730
0.111352 0.364442 -0.722895
0.721110 0.182669 0.264952
-0.167547 -0.023480 0.690750
-0.272870 0.213341 0.242113
0.639483 -0.031453 0.102937
-0.388197 0.228042 -0.364737
-0.054323 -0.323836 -0.351068
-0.792061 -0.550153 0.250202
-0.148288 -0.552102 0.365594
0.677888 -0.018734 -0.245584
-0.262331 0.002500 -0.720304
0.259560 -0.230072 0.696907
-0.876605 -0.381551 0.395940
0.279679 0.465906 0.703894
-0.183933 -0.585417 -0.087506
-0.576560 -0.274433 0.483593
0.134914 0.690121 0.630357
0.501836 0.221125 0.707657
-0.006889 0.424532 0.702166
-0.141447 0.224164 -0.723758
-0.185699 -0.116843 0.692488
0.684005 0.385720 0.537469
-0.127043 -0.574626 0.196807
-0.933116 -0.385164 -0.175894
0.342758 -0.211589 0.150809
0.744226 0.762730 -0.445904
-0.632591 -0.024851 -0.660993
-0.035453 0.533788 0.657784
0.425478 -0.074523 0.342769
0.797458 0.707024 -0.172787
0.746492 0.050822 0.013336
0.191131 0.629039 0.118925
0.210678 0.620957 -0.698232
-0.433873 -0.339307 0.499130
0.898230 0.601516 0.281759
0.301900 0.108832 0.726441
-0.776061 -0.633787 -0.132562
0.055483 -0.220557 -0.712982
-0.739454 -0.053566 0.131291
-0.089886 -0.333593 0.321333
-0.953541 -0.340628 -0.315961
0.128368 0.520368 0.693861
-0.445095 0.079186 -0.717037
-0.942030 -0.366120 -0.211005
-0.740594 -0.053784 -0.152858
-0.020568 -0.176657 0.564105
0.535674 0.804982 0.095287
-0.236115 0.495932 0.314481
0.561852 -0.102464 -0.199126
-0.635413 -0.039165 0.327886
-0.064059 0.454285 -0.546885
0.072316 0.698990 0.501619
0.622660 -0.061764 0.433641
-0.910520 -0.426404 -0.370126
-0.327768 -0.873904 -0.639951
0.625812 0.737547 0.449724
0.419259 -0.156673 0.187102
-0.011132 0.479588 -0.115285
-0.414290 -0.316339 0.498216
0.403941 0.680745 -0.709485
0.567830 0.196143 -0.728243
-0.786670 -0.351339 0.465413
-0.815062 -0.588123 -0.282333
-0.723698 -0.692476 -0.526028
0.423072 -0.239664 0.456369
0.932687 0.372762 0.160576
0.607246 0.913644 -0.095419
0.519997 0.034811 0.721242
0.237917 -0.294881 0.417412
-0.098964 -0.104802 0.581181
0.542604 -0.250711 0.535331
0.355369 -0.235773 0.035534
-0.314490 -0.855719 -0.003764
-0.363927 0.247700 -0.511518
0.499501 -0.062627 0.223906
0.241853 -0.224576 -0.517959
0.542603 0.682002 -0.714703
-0.439501 0.045581 0.410635
-0.760064 -0.076131 -0.638373
-0.558582 -0.352490 0.485740
0.318518 0.620513 0.620574
-0.935655 -0.362323 -0.438827
0.221002 -0.085875 0.708570
0.546191 0.861083 -0.613159
0.219658 0.802586 0.258450
0.809627 0.309586 0.456798
0.518287 -0.287369 0.572233
0.319018 0.712344 -0.554900
0.576281 0.344381 0.632554
0.936555 0.464057 -0.028619
-0.799918 -0.242164 -0.727397
-0.116646 -0.287481 -0.733319
-0.184716 0.317854 0.595921
0.367838 0.703092 0.268353
-0.572420 0.060439 -0.657851
-0.939124 -0.359427 0.335699
-0.834343 -0.083508 0.112313
0.965931 0.411517 -0.329031
-0.499270 0.159319 -0.475012
0.037679 0.569005 0.660983
-0.875236 -0.481321 -0.139031
0.863584 0.322791 0.374582
0.969241 0.382674 -0.412422
0.307382 0.675873 0.145107
0.794562 0.199944 -0.344955
0.561263 0.034744 0.312422
0.112415 0.742432 0.333268
-0.352752 -0.873680 -0.665742
0.750621 0.757887 -0.609361
0.416853 0.445244 -0.720122
-0.096749 -0.356810 0.162074
0.883944 0.366487 0.299345
-0.312718 -0.706695 0.477586
0.182435 -0.218911 -0.524711
0.621737 0.108987 -0.639700
-0.157284 -0.404043 -0.165504
0.853569 0.628936 -0.248782
0.127278 -0.272954 0.396677
0.767741 0.750814 -0.150129
-0.367017 0.047503 0.521366
0.181832 0.134286 0.722359
-0.141978 0.079574 0.588582
-0.472960 -0.106141 0.589506
0.471053 0.724730 0.243085
0.468940 0.441479 0.661798
0.036209 0.007590 0.665661
0.800022 0.689713 0.249363
0.579913 -0.091563 -0.253118
0.573189 0.776589 0.335907
0.556431 0.772249 0.257409
0.721028 0.322385 0.531978
0.177547 -0.304835 0.529112
0.135868 0.186543 -0.728057
0.775298 0.192966 -0.437721
0.647121 -0.017013 -0.519753
-0.828316 -0.350534 0.449552
-0.630396 -0.752414 0.120452
0.546870 0.787790 0.152445
0.514654 0.635445 0.521320
0.872635 0.600935 -0.135954
-0.028800 -0.295620 0.288805
0.526958 0.645685 0.512894
-0.638949 -0.786474 -0.388499
-0.115012 -0.718343 0.390302
-0.764790 -0.055953 0.230946
-0.067934 0.003390 0.593512
-0.385025 -0.010008 0.650838
-0.841129 -0.102107 -0.605295
-0.033697 0.422137 -0.703453
0.393411 0.728500 0.115340
-0.031280 -0.298937 -0.692398
-0.945727 -0.342401 -0.171030
-0.829965 -0.110969 -0.359618
0.052327 0.735287 0.271542
-0.072227 0.562163 0.637104
0.406102 0.781566 -0.575032
-0.223231 0.269298 0.256114
0.301759 -0.262688 -0.025876
0.310223 -0.210038 -0.537145
0.449798 0.808741 -0.484371
-0.837838 -0.329610 0.450040
-0.628024 -0.167850 -0.730981
0.012705 0.141245 0.698667
0.239596 -0.187165 0.700550
-0.430761 0.116304 0.211110
0.679015 0.861084 -0.056503
-0.210862 -0.804097 -0.658858
-0.461083 -0.041978 0.520862
-0.136630 -0.757726 -0.350383
-0.043146 -0.029867 -0.720234
-0.037270 0.479419 -0.354351
-0.159130 -0.784660 -0.236987
-0.771722 -0.058270 0.106187
-0.232360 0.277364 0.215655
-0.647319 -0.345693 -0.712914
0.681345 0.818558 -0.678276
0.836768 0.287735 -0.581326
0.789728 0.498159 0.573800
-0.046094 0.510742 0.152516
0.313819 0.444450 0.713064
-0.954197 -0.282702 -0.358234
-0.454610 0.096710 0.168409
0.747732 0.246697 0.422951
0.777002 0.155688 -0.086903
-0.352427 0.251735 0.009861
-0.798266 -0.237477 0.465231
0.737629 0.018291 -0.167967
-0.649537 -0.745286 0.005039
-0.144543 0.397752 -0.102649
0.782939 0.727708 -0.149962
-0.427856 0.199719 -0.557459
-0.298535 -0.878981 -0.147781
-0.152662 -0.404247 -0.176890
