0.055551 0.716522 -0.045257
0.048144 0.746156 -0.038786
0.032752 0.777789 -0.040722
0.036028 0.805297 -0.022741
0.086626 0.383260 -0.184843
0.074256 0.414073 -0.183639
0.083141 0.448036 -0.155607
0.080896 0.479456 -0.142092
0.082921 0.510672 -0.123625
0.087474 0.541221 -0.102511
0.076639 0.570913 -0.100095
0.079334 0.600356 -0.081764
0.077627 0.629454 -0.068837
0.071400 0.658692 -0.061205
0.056718 0.689087 -0.063017
0.056525 0.717658 -0.048577
0.050424 0.747086 -0.040711
0.031183 0.779635 -0.046839
0.018163 0.811495 -0.045938
0.085621 0.383524 -0.191460
0.079110 0.415523 -0.182744
0.082068 0.448556 -0.162206
0.081592 0.480299 -0.146436
0.085414 0.511698 -0.125726
0.090570 0.542254 -0.103862
0.077922 0.571946 -0.103686
0.081845 0.601389 -0.083879
0.081402 0.630399 -0.069507
0.073310 0.659798 -0.064064
0.061214 0.689885 -0.063050
0.057837 0.718932 -0.052173
0.049175 0.748932 -0.047114
0.037732 0.779832 -0.044918
0.008543 0.815854 -0.061266
0.085220 0.383912 -0.197329
0.078110 0.415926 -0.189373
0.084572 0.449582 -0.164305
0.083503 0.481259 -0.149288
0.086706 0.512635 -0.129310
0.090617 0.543199 -0.108911
0.081681 0.572979 -0.104329
0.083124 0.602458 -0.087454
0.083300 0.631468 -0.072348
0.075859 0.660838 -0.066198
0.059364 0.691556 -0.070225
0.055973 0.720756 -0.059313
0.047316 0.750910 -0.054233
0.036532 0.781825 -0.051321
0.002886 0.819209 -0.072516
0.083532 0.383993 -0.204593
0.081644 0.417084 -0.189837
0.081615 0.449794 -0.173044
0.081686 0.481786 -0.156506
0.087251 0.513463 -0.133512
0.098437 0.544305 -0.104181
0.087122 0.573916 -0.102613
0.086114 0.603396 -0.088694
0.086298 0.632385 -0.073595
0.076371 0.662010 -0.070363
0.061176 0.692632 -0.072978
0.056523 0.722075 -0.063491
0.048522 0.752177 -0.057707
0.037763 0.783144 -0.054808
-0.004181 0.822843 -0.085037
0.084486 0.384711 -0.209095
0.079098 0.417260 -0.198883
0.082541 0.450644 -0.177540
0.084974 0.482936 -0.157988
0.089329 0.514511 -0.136481
0.088957 0.545031 -0.121261
0.082466 0.575052 -0.113719
0.088190 0.604509 -0.091659
0.087749 0.633564 -0.077286
0.079102 0.663116 -0.072621
0.064587 0.693665 -0.074559
0.057419 0.723540 -0.067943
0.046886 0.754236 -0.064987
0.036784 0.785217 -0.061368
0.014258 0.819920 -0.070916
0.083836 0.384975 -0.214727
0.079590 0.417839 -0.202999
0.081246 0.451047 -0.183912
0.084824 0.483581 -0.162832
0.090344 0.515317 -0.139805
0.090569 0.545895 -0.123832
0.083482 0.575946 -0.117043
0.090414 0.605388 -0.093492
0.089977 0.634450 -0.079121
0.080105 0.664142 -0.075928
0.065624 0.694757 -0.077888
0.058468 0.724676 -0.071277
0.050502 0.754910 -0.065500
0.035963 0.786924 -0.066822
-0.000631 0.825575 -0.091630
0.086382 0.385993 -0.216817
0.079261 0.418359 -0.208902
0.082637 0.451904 -0.187527
0.085603 0.484431 -0.167189
0.091092 0.516218 -0.144140
0.093713 0.546921 -0.125169
0.084222 0.576986 -0.121377
0.086213 0.606700 -0.103699
0.092530 0.635469 -0.081213
0.083936 0.665036 -0.076591
0.070136 0.695533 -0.077875
0.059863 0.725965 -0.074881
0.048114 0.757042 -0.073368
0.036145 0.788631 -0.071863
-0.001626 0.827758 -0.098121
0.083810 0.385919 -0.225774
0.077226 0.418586 -0.217098
0.081708 0.452453 -0.194177
0.086989 0.485332 -0.170791
0.092453 0.517155 -0.147726
0.091451 0.547807 -0.133235
0.082554 0.578055 -0.128688
0.088177 0.607747 -0.106538
0.092623 0.636677 -0.086236
0.084661 0.666274 -0.080887
0.071519 0.696764 -0.081467
0.060016 0.727467 -0.079921
0.051451 0.757979 -0.074859
0.035079 0.790645 -0.078317
0.001237 0.828901 -0.100448
0.085655 0.386747 -0.228500
0.077362 0.419143 -0.222126
0.083552 0.453325 -0.196906
0.087051 0.486050 -0.175780
0.090103 0.517815 -0.155704
0.090260 0.548664 -0.139687
0.086199 0.578993 -0.129171
0.087549 0.608839 -0.112206
0.088889 0.638113 -0.095551
0.087719 0.667153 -0.082132
0.071504 0.698105 -0.086373
0.060649 0.728793 -0.084111
0.050841 0.759650 -0.080474
0.049067 0.788873 -0.067723
0.000746 0.830835 -0.106111
0.080312 0.386081 -0.241314
0.078826 0.419970 -0.225763
0.084987 0.454190 -0.200525
0.084365 0.486555 -0.184696
0.093869 0.518892 -0.156277
0.088062 0.549572 -0.147783
0.090005 0.579997 -0.129774
0.088932 0.609916 -0.115787
0.089648 0.639285 -0.099859
0.090323 0.668171 -0.084230
0.074783 0.699050 -0.087787
0.065216 0.729511 -0.084121
0.050426 0.761393 -0.086238
0.038545 0.793217 -0.084762
0.011239 0.829853 -0.100043
0.081067 0.386674 -0.245585
0.076139 0.420044 -0.234626
0.084539 0.454754 -0.206302
0.082721 0.487119 -0.191980
0.085666 0.519214 -0.171839
0.079181 0.550276 -0.164046
0.075607 0.581177 -0.152691
0.090771 0.610890 -0.118494
0.090873 0.640333 -0.103298
0.090925 0.669336 -0.088392
0.076658 0.700112 -0.090514
0.063380 0.731291 -0.091194
0.052371 0.762522 -0.089011
0.034858 0.795803 -0.093928
0.024044 0.828059 -0.090987
0.070581 0.384908 -0.265235
0.075198 0.420417 -0.241206
0.084690 0.455398 -0.211320
0.084020 0.487962 -0.195470
0.076352 0.519493 -0.188962
0.072747 0.551045 -0.177337
0.070306 0.582261 -0.164429
0.082946 0.612355 -0.133122
0.091502 0.641432 -0.107477
0.092156 0.670427 -0.091824
0.077926 0.701262 -0.093967
0.065303 0.732390 -0.093945
0.053076 0.763928 -0.093214
0.033097 0.797920 -0.100990
0.028602 0.828557 -0.091003
0.066517 0.384528 -0.276601
0.069336 0.420000 -0.254841
0.085600 0.456189 -0.215710
0.086078 0.488922 -0.198329
0.066695 0.519837 -0.207023
0.074835 0.552070 -0.180222
0.069411 0.583360 -0.171074
0.074149 0.613967 -0.149418
0.091704 0.642655 -0.112534
0.091731 0.671812 -0.097593
0.082454 0.702009 -0.093901
0.068026 0.733437 -0.096102
0.053348 0.765547 -0.098276
0.039680 0.798059 -0.098966
0.018880 0.833238 -0.107329
0.071282 0.385956 -0.275515
0.078090 0.422014 -0.248373
0.083496 0.456534 -0.223805
0.023689 0.483903 -0.285859
0.085034 0.521668 -0.188492
0.076764 0.553023 -0.182969
0.085062 0.584092 -0.156517
0.070667 0.615249 -0.158896
0.094185 0.643600 -0.114490
0.091775 0.673057 -0.102503
0.083125 0.703255 -0.098078
0.069349 0.734646 -0.099571
0.049122 0.768052 -0.108241
0.044823 0.798440 -0.098203
0.025977 0.833011 -0.104529
0.071917 0.386594 -0.280859
0.075856 0.422248 -0.257548
0.085186 0.457472 -0.227569
-0.029853 0.479925 -0.363261
0.079703 0.522320 -0.201390
0.080808 0.554136 -0.183701
0.078994 0.585352 -0.170063
0.070565 0.616524 -0.164914
0.075875 0.646567 -0.142770
0.095820 0.673988 -0.103245
0.084764 0.704544 -0.101790
0.069798 0.736229 -0.104763
0.057055 0.768089 -0.104809
0.045335 0.800228 -0.103408
0.026545 0.834909 -0.109756
0.075183 0.387736 -0.282204
0.076869 0.422989 -0.261977
0.084446 0.458050 -0.234280
-0.027966 0.480980 -0.367169
0.078916 0.523155 -0.208080
0.092900 0.555309 -0.173652
0.078741 0.586436 -0.175956
0.076290 0.617388 -0.163295
0.081609 0.647322 -0.141164
0.094244 0.675527 -0.110510
0.086857 0.705658 -0.104633
0.073166 0.737152 -0.106181
0.064171 0.768170 -0.101932
0.049414 0.800982 -0.104188
0.025712 0.837099 -0.116265
0.075340 0.388161 -0.287154
0.077559 0.423597 -0.266143
0.082260 0.458351 -0.242279
0.083032 0.524137 -0.207633
0.086461 0.556049 -0.186888
0.081715 0.587308 -0.177051
0.082852 0.618048 -0.159887
0.076190 0.648933 -0.152731
0.094781 0.676625 -0.114560
0.084972 0.707225 -0.111629
0.074967 0.738170 -0.108783
0.061691 0.770199 -0.109617
0.047571 0.803034 -0.111131
0.020195 0.840425 -0.127468
0.073647 0.388271 -0.295480
0.075807 0.423875 -0.274449
0.081578 0.458936 -0.249012
0.086906 0.525206 -0.208203
0.088004 0.557045 -0.190507
0.082090 0.588385 -0.182192
0.078457 0.619484 -0.171041
0.078943 0.649959 -0.154857
0.088441 0.678801 -0.127798
0.087098 0.708346 -0.114475
0.075905 0.739562 -0.113113
0.061437 0.771957 -0.115411
0.050432 0.804103 -0.113336
0.026240 0.840615 -0.126186
0.076773 0.389341 -0.296685
0.075592 0.424366 -0.280311
0.082445 0.459669 -0.253301
0.086575 0.526012 -0.214001
0.085901 0.557939 -0.198581
0.083487 0.589367 -0.185689
0.080451 0.620480 -0.173782
0.080337 0.651036 -0.158345
0.078990 0.681314 -0.144666
0.087854 0.709599 -0.118666
0.077294 0.740771 -0.116578
0.063477 0.773085 -0.118171
0.050663 0.805752 -0.118277
0.022218 0.843663 -0.136144
0.075132 0.389458 -0.305027
0.078908 0.425480 -0.281645
0.082937 0.460402 -0.258501
0.088737 0.526994 -0.216862
0.074145 0.558789 -0.219809
0.068103 0.590854 -0.211390
0.078497 0.621791 -0.181949
0.083107 0.652054 -0.160460
0.071590 0.683680 -0.159479
0.090003 0.710713 -0.121507
0.078266 0.742163 -0.120911
0.065096 0.774419 -0.121792
0.052321 0.807151 -0.121919
0.031960 0.842740 -0.130558
0.074118 0.425179 -0.293610
0.081422 0.460797 -0.265770
0.016441 0.488907 -0.337215
0.088274 0.527734 -0.222539
0.080059 0.559719 -0.217069
0.065900 0.591872 -0.219364
0.075053 0.623051 -0.191383
0.099764 0.651541 -0.144231
0.075845 0.684340 -0.159106
0.087010 0.712500 -0.130021
0.075881 0.744031 -0.128660
0.066980 0.775466 -0.124413
0.056683 0.807575 -0.121669
0.041296 0.841648 -0.124655
0.075807 0.426022 -0.297286
0.075250 0.460709 -0.280311
0.045992 0.492247 -0.303060
0.089321 0.528665 -0.226944
0.072474 0.560649 -0.233001
0.068738 0.592912 -0.221511
0.070829 0.624531 -0.202623
0.088319 0.653959 -0.164409
0.075687 0.685768 -0.164982
0.087998 0.713819 -0.134354
0.084127 0.743958 -0.124155
0.067413 0.777085 -0.129494
0.055316 0.809795 -0.128922
0.046077 0.842168 -0.124728
0.075306 0.426505 -0.304086
0.067472 0.460431 -0.297227
0.066364 0.494767 -0.281189
0.080141 0.529133 -0.245261
0.078177 0.561697 -0.231283
0.073324 0.593901 -0.221355
0.069580 0.625835 -0.210086
0.087574 0.655329 -0.171041
0.078520 0.686801 -0.167110
0.097958 0.713607 -0.127516
0.086340 0.745108 -0.127006
0.070888 0.777986 -0.130917
0.055197 0.811685 -0.134737
0.032000 0.420065 -0.371944
0.066434 0.460995 -0.304824
0.074276 0.496218 -0.276330
0.086929 0.530327 -0.241950
0.087876 0.562766 -0.224150
0.076171 0.594927 -0.223485
0.069530 0.627066 -0.216038
0.072769 0.658164 -0.195863
0.083135 0.687585 -0.166976
0.085863 0.717189 -0.148255
0.089760 0.746001 -0.128375
0.073162 0.779173 -0.133797
0.062965 0.811407 -0.131107
0.068751 0.461962 -0.307743
0.076006 0.497148 -0.280008
0.088610 0.531295 -0.245592
0.079272 0.563719 -0.241684
0.076721 0.596033 -0.228679
0.050344 0.629622 -0.247199
0.075641 0.659197 -0.197996
0.083619 0.688933 -0.172103
0.082174 0.719350 -0.158588
0.086024 0.748390 -0.138633
0.075447 0.780353 -0.136675
0.068297 0.811788 -0.130362
0.080655 0.463977 -0.296301
0.080738 0.498218 -0.278740
0.084312 0.531880 -0.256742
0.072663 0.564569 -0.255907
0.076932 0.596993 -0.233613
0.055248 0.630377 -0.246054
0.074075 0.660516 -0.205179
0.083766 0.690149 -0.176967
0.075809 0.721804 -0.171678
0.085547 0.749899 -0.144195
0.073792 0.782279 -0.143700
0.081066 0.809832 -0.119840
0.065901 0.462893 -0.323496
0.079146 0.498877 -0.287095
0.084352 0.532782 -0.262733
0.080661 0.565609 -0.251063
0.081531 0.597960 -0.233421
0.068591 0.630685 -0.234433
0.076392 0.661607 -0.208073
0.086636 0.691167 -0.179079
0.076940 0.723152 -0.176062
0.086638 0.751298 -0.148537
0.074321 0.783898 -0.148794
0.074376 0.813561 -0.133665
0.054561 0.462241 -0.346058
0.091450 0.500635 -0.275898
0.084417 0.533683 -0.268729
0.090892 0.566635 -0.243081
0.080990 0.599103 -0.240162
0.077272 0.631300 -0.228898
0.082776 0.662259 -0.205620
0.085426 0.692772 -0.186485
0.083377 0.723540 -0.173678
0.089521 0.752316 -0.150644
0.077248 0.784939 -0.150933
0.080292 0.813751 -0.132142
0.085835 0.500929 -0.289606
0.078186 0.534283 -0.283191
0.089067 0.567572 -0.251255
0.087688 0.599901 -0.236726
0.076566 0.632509 -0.235503
0.082606 0.663527 -0.211421
0.083486 0.694405 -0.194531
0.072633 0.726947 -0.192989
0.091052 0.753518 -0.154107
0.075855 0.786938 -0.158117
0.073517 0.817429 -0.145883
0.083765 0.501559 -0.298767
0.087780 0.535551 -0.275916
0.099253 0.568568 -0.243221
0.081515 0.601264 -0.251219
0.076072 0.633798 -0.242250
0.084373 0.664677 -0.215064
0.082346 0.696024 -0.201965
0.077926 0.727555 -0.192108
0.096886 0.753884 -0.152458
0.075859 0.788719 -0.163966
0.053953 0.824967 -0.175980
0.086862 0.502474 -0.299817
0.086435 0.536283 -0.283229
0.098400 0.569440 -0.249706
0.080688 0.602282 -0.257720
0.072388 0.635168 -0.252598
0.086934 0.665556 -0.216906
0.077401 0.698039 -0.213719
0.079931 0.728544 -0.194725
0.064304 0.762514 -0.199291
0.077869 0.789759 -0.166577
0.058985 0.825195 -0.174951
0.084851 0.503112 -0.308998
0.089355 0.537287 -0.285322
0.091238 0.570466 -0.265838
0.081384 0.603388 -0.262942
0.086722 0.635300 -0.239270
0.088724 0.666699 -0.220543
0.078067 0.699416 -0.218897
0.082316 0.729680 -0.197604
-0.023660 0.783869 -0.318699
0.080263 0.790939 -0.169453
0.058499 0.827282 -0.181561
0.085062 0.503917 -0.315040
0.088976 0.538181 -0.292126
0.091381 0.571484 -0.271834
0.077612 0.604700 -0.274398
0.086841 0.636538 -0.245241
0.093378 0.667505 -0.220329
0.085070 0.699819 -0.215668
0.085868 0.730588 -0.198959
-0.030198 0.787253 -0.333879
0.082667 0.792118 -0.172324
0.066850 0.826777 -0.177081
0.083124 0.504569 -0.324249
0.089725 0.539111 -0.297363
0.092104 0.572502 -0.277053
0.079485 0.605769 -0.278077
0.084167 0.638010 -0.255098
0.084960 0.669864 -0.237836
0.086904 0.701013 -0.219307
0.090574 0.731269 -0.198786
-0.037817 0.790917 -0.350607
0.085664 0.793136 -0.174444
0.062885 0.829905 -0.188135
0.070936 0.504496 -0.348521
0.089948 0.540027 -0.303392
0.097821 0.573477 -0.275207
0.079144 0.606942 -0.284881
0.079853 0.639637 -0.267306
0.086253 0.671079 -0.242259
0.084760 0.702830 -0.228316
0.087815 0.733386 -0.208500
0.081124 0.796147 -0.186298
0.057811 0.833399 -0.200703
0.055232 0.504086 -0.377348
0.089278 0.540796 -0.309958
0.086636 0.574458 -0.296683
0.079564 0.607923 -0.289863
0.081936 0.640568 -0.269936
0.077028 0.673402 -0.260348
0.080007 0.704882 -0.240153
0.087012 0.734939 -0.214919
0.080310 0.797956 -0.192661
0.086834 0.541639 -0.319957
0.080862 0.575550 -0.311384
0.080384 0.609051 -0.295114
0.084407 0.641630 -0.272828
0.088516 0.673380 -0.250845
0.085883 0.705445 -0.238422
0.090605 0.735833 -0.216258
0.079330 0.800067 -0.200051
0.093102 0.542730 -0.317293
0.084998 0.576554 -0.311916
0.082329 0.610121 -0.298797
0.086334 0.642736 -0.276495
0.086499 0.675021 -0.259931
0.091746 0.706002 -0.236671
0.088521 0.737863 -0.225247
0.080108 0.801715 -0.205192
0.096467 0.543675 -0.318447
0.090579 0.577462 -0.309930
0.082997 0.611176 -0.303919
0.084202 0.644128 -0.285506
0.089361 0.675966 -0.261902
0.090656 0.707585 -0.244039
0.090817 0.738917 -0.227983
0.079571 0.803605 -0.211714
0.080054 0.473098 -0.385204
0.098407 0.544642 -0.322106
0.102310 0.578341 -0.299346
0.083879 0.612304 -0.309178
0.087828 0.645087 -0.286826
0.093533 0.676823 -0.262438
0.092593 0.708779 -0.247682
0.089930 0.740720 -0.235459
0.079828 0.805407 -0.217622
0.092131 0.545338 -0.337582
0.102432 0.579301 -0.305240
0.081859 0.613513 -0.318254
0.089612 0.646128 -0.290363
0.088636 0.678772 -0.275319
0.089883 0.710647 -0.257394
0.089445 0.742353 -0.242045
0.079348 0.807312 -0.224162
0.092868 0.546217 -0.342723
0.097184 0.580348 -0.319084
0.084776 0.614458 -0.320232
0.084825 0.647784 -0.303333
0.088220 0.680149 -0.281975
0.087774 0.712434 -0.266348
0.090111 0.743753 -0.247096
0.080596 0.808740 -0.228433
0.095609 0.547265 -0.345728
0.095609 0.581492 -0.328444
0.076163 0.616209 -0.339888
0.089782 0.648706 -0.303205
0.090427 0.681373 -0.285769
0.089979 0.713702 -0.270136
0.091746 0.745181 -0.251644
0.082822 0.810147 -0.232212
0.101156 0.548246 -0.343670
0.080301 0.582759 -0.357484
0.081294 0.617036 -0.338704
0.092165 0.649695 -0.305956
0.087868 0.683050 -0.295575
0.080203 0.716844 -0.290026
0.093565 0.746346 -0.255153
0.071171 0.815246 -0.254002
0.097899 0.549104 -0.355345
0.078666 0.583865 -0.366779
0.087152 0.617886 -0.336844
0.087155 0.651498 -0.319897
0.085550 0.684808 -0.305531
0.074575 0.719409 -0.304637
0.093933 0.747935 -0.261118
0.096606 0.549939 -0.363706
0.084314 0.584759 -0.364765
0.089581 0.618854 -0.339604
0.082553 0.653197 -0.332946
0.094524 0.684911 -0.298848
0.078694 0.720171 -0.305073
0.095233 0.749225 -0.265405
0.100071 0.550869 -0.364841
0.092070 0.585586 -0.359528
0.087743 0.620084 -0.348737
0.085555 0.654135 -0.334924
0.094772 0.686222 -0.304742
0.084997 0.720529 -0.302364
0.094900 0.750873 -0.272028
0.108965 0.551953 -0.358043
0.098413 0.586502 -0.356799
0.095732 0.620780 -0.343647
0.095206 0.654472 -0.327496
0.096327 0.687453 -0.309192
0.090940 0.721042 -0.300551
0.094248 0.752712 -0.279566
0.100108 0.552737 -0.378632
0.107368 0.587345 -0.350029
0.093611 0.622121 -0.353719
0.093047 0.656032 -0.337530
0.101673 0.688134 -0.308106
0.096868 0.721548 -0.298714
0.093086 0.754676 -0.287898
0.093741 0.553514 -0.395105
0.108752 0.588297 -0.354360
0.092390 0.623330 -0.362076
0.093931 0.657190 -0.342671
0.093384 0.690699 -0.326677
0.096633 0.723071 -0.305386
0.093393 0.756214 -0.293767
0.109632 0.589264 -0.359497
0.099109 0.624003 -0.358417
0.096429 0.658171 -0.345421
0.078760 0.694244 -0.354814
0.099661 0.724002 -0.307337
0.094808 0.757511 -0.298075
0.107930 0.590304 -0.368671
0.084284 0.626172 -0.387663
0.096820 0.659387 -0.351363
0.086664 0.694471 -0.349651
0.097325 0.725936 -0.317176
0.094621 0.759173 -0.304738
0.110298 0.591374 -0.372458
0.080471 0.627769 -0.401161
0.098698 0.660618 -0.355969
0.083798 0.696508 -0.361436
0.099722 0.727196 -0.320967
0.095951 0.760726 -0.310097
0.102673 0.592692 -0.391495
0.087972 0.628472 -0.396828
0.097242 0.662142 -0.365255
0.090831 0.696940 -0.357964
0.093941 0.729928 -0.336508
0.093347 0.763086 -0.320837
0.104189 0.593652 -0.395856
0.103542 0.628472 -0.379423
0.095622 0.663607 -0.374427
0.097635 0.697299 -0.354338
0.103417 0.729613 -0.328941
0.104034 0.629586 -0.385392
0.095083 0.664955 -0.382006
0.107044 0.697233 -0.346688
0.100163 0.731775 -0.340413
0.101460 0.630934 -0.396224
0.098212 0.665878 -0.383955
0.105948 0.698808 -0.355019
0.100648 0.733218 -0.346336
0.108379 0.631630 -0.392610
0.100523 0.666985 -0.387639
0.102493 0.700867 -0.367503
0.102943 0.734412 -0.350001
0.111187 0.632641 -0.395467
0.099242 0.668538 -0.396978
0.108439 0.701431 -0.365548
0.105252 0.735606 -0.353664
0.107240 0.668948 -0.391766
0.105584 0.703423 -0.377255
0.104562 0.670494 -0.402472
0.114207 0.703321 -0.370191
-0.188887 -0.016271 0.337511
-0.222653 -0.027839 0.316448
-0.221858 -0.026572 0.313996
-0.223354 -0.026015 0.309906
-0.207154 -0.018887 0.315314
-0.262421 -0.006242 0.303532
-0.211850 -0.019532 0.309510
-0.259823 -0.004177 0.301486
-0.205295 -0.016015 0.309787
-0.253969 -0.001004 0.301170
-0.202868 -0.014184 0.308248
-0.244176 0.003347 0.303393
-0.197914 -0.011283 0.307691
-0.235078 0.007589 0.304867
-0.254921 0.033127 0.311706
-0.188954 -0.006924 0.309366
-0.224363 0.012358 0.307254
-0.250635 0.035647 0.310534
-0.184859 -0.004433 0.308589
-0.233968 0.010160 0.298943
-0.241489 0.039588 0.312142
-0.177505 -0.000697 0.309440
-0.215158 0.017632 0.305765
-0.233924 0.043105 0.312748
-0.175004 0.001186 0.307810
-0.208561 0.020885 0.306239
-0.228880 0.045742 0.312261
-0.166116 0.005384 0.309781
-0.207623 0.022226 0.303642
-0.223835 0.048365 0.311796
-0.256840 0.069932 0.311314
-0.162690 0.007721 0.308303
-0.198477 0.026453 0.305148
-0.215392 0.052174 0.312752
-0.251587 0.072694 0.310397
-0.160180 0.009574 0.306717
-0.191075 0.029926 0.306144
-0.207898 0.055522 0.313657
-0.244812 0.075705 0.310728
-0.150442 0.014102 0.309069
-0.183615 0.033478 0.307003
-0.206867 0.056958 0.310886
-0.236324 0.079251 0.311781
-0.146338 0.016504 0.308431
-0.179441 0.035859 0.306263
-0.201818 0.059537 0.310508
-0.227907 0.082686 0.313048
-0.256983 0.105793 0.314422
-0.133432 0.022123 0.312690
-0.179223 0.036988 0.303111
-0.190191 0.064167 0.313545
-0.225191 0.084606 0.311105
-0.250893 0.108540 0.314120
-0.132569 0.023281 0.310426
-0.169479 0.041112 0.305741
-0.183585 0.067112 0.314290
-0.217669 0.087683 0.312166
-0.242447 0.111704 0.315503
-0.128402 0.025750 0.309690
-0.162827 0.044336 0.306256
-0.176039 0.070474 0.315171
-0.208371 0.091382 0.313796
-0.236360 0.114422 0.315257
-0.126609 0.027354 0.307580
-0.159386 0.046504 0.304970
-0.169308 0.073566 0.315637
-0.204007 0.093712 0.312800
-0.227783 0.117733 0.316353
-0.116958 0.031676 0.310292
-0.151999 0.049874 0.306160
-0.166701 0.075346 0.314032
-0.204631 0.094605 0.309316
-0.223427 0.119916 0.315462
-0.260153 0.141645 0.312543
-0.111998 0.034387 0.310083
-0.145351 0.053053 0.306758
-0.163212 0.077448 0.312726
-0.192061 0.099148 0.312829
-0.216515 0.122796 0.315741
-0.250636 0.144979 0.313983
-0.109470 0.036167 0.308646
-0.141172 0.055354 0.306157
-0.157357 0.080174 0.312972
-0.187762 0.101353 0.312065
-0.212157 0.124949 0.314893
-0.242869 0.147836 0.314772
-0.101286 0.040050 0.310202
-0.134462 0.058592 0.306642
-0.151371 0.083067 0.312911
-0.180869 0.104393 0.312338
-0.201870 0.128693 0.316834
-0.237468 0.150319 0.313922
-0.097241 0.042277 0.309900
-0.131146 0.060525 0.305776
-0.143161 0.086393 0.314752
-0.172551 0.107572 0.314054
-0.213277 0.126942 0.307710
-0.231448 0.152685 0.314071
-0.090704 0.045486 0.310724
-0.127694 0.062628 0.304600
-0.138054 0.088928 0.314451
-0.170633 0.109184 0.311823
-0.195631 0.132356 0.313906
-0.227785 0.154685 0.312563
-0.258025 0.178458 0.312781
-0.090530 0.046402 0.307918
-0.121119 0.065654 0.305481
-0.134627 0.090884 0.313404
-0.163884 0.111990 0.312514
-0.193743 0.133872 0.311783
-0.216698 0.158187 0.315243
-0.255220 0.180179 0.310935
-0.086352 0.048775 0.307351
-0.116073 0.068240 0.305285
-0.127906 0.093866 0.314076
-0.154624 0.115528 0.314444
-0.182717 0.137645 0.314479
-0.210540 0.160700 0.315120
-0.248974 0.182619 0.310673
-0.079096 0.052137 0.308876
-0.119047 0.068196 0.300525
-0.125281 0.095573 0.312594
-0.160909 0.114869 0.307810
-0.173420 0.140913 0.316485
-0.205288 0.162920 0.314750
-0.242806 0.184949 0.310618
-0.078841 0.053126 0.305937
-0.106047 0.073295 0.305117
-0.121779 0.097602 0.311435
-0.150837 0.118591 0.310252
-0.170635 0.142686 0.314706
-0.199961 0.165227 0.314230
-0.234050 0.187827 0.311739
-0.074006 0.055574 0.306210
-0.105106 0.074423 0.302908
-0.114396 0.100598 0.312966
-0.141727 0.121894 0.312600
-0.165526 0.144854 0.314651
-0.192296 0.167850 0.315429
-0.227964 0.190025 0.311919
-0.067474 0.058716 0.307168
-0.095298 0.078474 0.305668
-0.110090 0.102833 0.312316
-0.134109 0.124935 0.313726
-0.161914 0.146810 0.313360
-0.185316 0.170472 0.315867
-0.220054 0.192714 0.312664
-0.256288 0.215944 0.309338
-0.076591 0.056467 0.298397
-0.090254 0.081002 0.305582
-0.104180 0.105514 0.312636
-0.135415 0.125638 0.309723
-0.155840 0.149330 0.313472
-0.184133 0.171879 0.313144
-0.225516 0.192948 0.306267
-0.255870 0.217314 0.305999
-0.065361 0.061199 0.302314
-0.090750 0.081778 0.302127
-0.100675 0.107499 0.311549
-0.124559 0.129492 0.312781
-0.150587 0.151645 0.313146
-0.177980 0.174304 0.313169
-0.210093 0.196970 0.311103
-0.242814 0.220648 0.309305
-0.072879 0.059515 0.294483
-0.084120 0.084789 0.303043
-0.095566 0.109924 0.311435
-0.117760 0.132275 0.313521
-0.145334 0.153953 0.312842
-0.165224 0.178070 0.316902
-0.203027 0.199461 0.311488
-0.239024 0.222523 0.307776
-0.260410 0.248786 0.312303
-0.064133 0.063251 0.297280
-0.083950 0.085639 0.300393
-0.091397 0.111946 0.311173
-0.118382 0.132993 0.310336
-0.137778 0.156626 0.314292
-0.165007 0.179102 0.314100
-0.199451 0.201146 0.310429
-0.231191 0.224838 0.308851
-0.253347 0.250852 0.312830
-0.068503 0.062643 0.291393
-0.078898 0.088130 0.300369
-0.086290 0.114356 0.311100
-0.114815 0.134927 0.309210
-0.135794 0.158150 0.312157
-0.160511 0.181146 0.313281
-0.198211 0.202567 0.307670
-0.226560 0.226816 0.307809
-0.244435 0.253321 0.313911
-0.068184 0.063625 0.288465
-0.078578 0.089148 0.297421
-0.081982 0.116525 0.310563
-0.107211 0.137880 0.310494
-0.126466 0.161352 0.314279
-0.152722 0.183850 0.314342
-0.186163 0.205893 0.310873
-0.215222 0.229790 0.310397
-0.237219 0.255555 0.314144
-0.063261 0.066100 0.288681
-0.071232 0.092269 0.299061
-0.079335 0.118151 0.309224
-0.106131 0.139096 0.308120
-0.127808 0.162033 0.310439
-0.147480 0.185945 0.314201
-0.180846 0.207937 0.310618
-0.211512 0.231519 0.309131
-0.231777 0.257460 0.313695
-0.062930 0.067075 0.285761
-0.072473 0.092789 0.295138
-0.090939 0.115851 0.298941
-0.096923 0.142429 0.310420
-0.121743 0.164465 0.310715
-0.151200 0.186311 0.308752
-0.169650 0.211065 0.313453
-0.203539 0.233959 0.309981
-0.225411 0.259555 0.313538
-0.063434 0.067712 0.282490
-0.067487 0.095162 0.295333
-0.075551 0.121037 0.305441
-0.095837 0.143623 0.308073
-0.122254 0.165330 0.307353
-0.134463 0.190677 0.315231
-0.169312 0.212215 0.310470
-0.198158 0.235907 0.309667
-0.219130 0.261540 0.313585
-0.256626 0.286141 0.309213
-0.056885 0.070760 0.283602
-0.067140 0.096166 0.292402
-0.072028 0.122950 0.304468
-0.090655 0.145916 0.308001
-0.109695 0.169190 0.311503
-0.128331 0.192985 0.315470
-0.164749 0.214164 0.309647
-0.190194 0.238310 0.310582
-0.210245 0.263914 0.314838
-0.246793 0.288463 0.310748
-0.056602 0.071654 0.280844
-0.067638 0.096855 0.289124
-0.077298 0.122363 0.298221
-0.086351 0.147909 0.307620
-0.108576 0.170407 0.309124
-0.124736 0.194714 0.314471
-0.157784 0.216442 0.310417
-0.190653 0.239387 0.307093
-0.202291 0.266068 0.315851
-0.242136 0.290178 0.309831
-0.053921 0.073397 0.279456
-0.060227 0.099998 0.290712
-0.072174 0.124715 0.298247
-0.084376 0.149381 0.305631
-0.098469 0.173681 0.311911
-0.118609 0.196992 0.314759
-0.151571 0.218647 0.310580
-0.180194 0.242120 0.309444
-0.195941 0.268097 0.315812
-0.232317 0.292463 0.311439
-0.052079 0.074797 0.277721
-0.058367 0.101389 0.288954
-0.064751 0.127624 0.299941
-0.080869 0.151154 0.304787
-0.098964 0.174531 0.308585
-0.119914 0.197747 0.310921
-0.147915 0.220333 0.309518
-0.174820 0.244017 0.309222
-0.191353 0.269819 0.315060
-0.227663 0.294156 0.310571
-0.040905 0.079338 0.281980
-0.057991 0.102386 0.286040
-0.066748 0.127997 0.295516
-0.073288 0.153996 0.306272
-0.094525 0.176524 0.308023
-0.109705 0.200795 0.313646
-0.142529 0.222376 0.309252
-0.171028 0.245768 0.307922
-0.184170 0.271921 0.315532
-0.222079 0.296009 0.309995
-0.255535 0.321847 0.307558
-0.018189 0.087668 0.293994
-0.058388 0.103148 0.282617
-0.059256 0.130964 0.297102
-0.073700 0.154861 0.302831
-0.084437 0.179747 0.310908
-0.107659 0.202252 0.311589
-0.135500 0.224684 0.309963
-0.163913 0.247966 0.308512
-0.178664 0.273812 0.315112
-0.213125 0.298156 0.311259
-0.245639 0.323913 0.309113
-0.006359 0.092320 0.299042
-0.056508 0.104525 0.280868
-0.061308 0.131257 0.292824
-0.073377 0.155835 0.300038
-0.083303 0.180934 0.308585
-0.102428 0.204245 0.311635
-0.132664 0.226208 0.308477
-0.159372 0.249717 0.307886
-0.181598 0.274632 0.310252
-0.208475 0.299804 0.310459
-0.240080 0.325584 0.308653
-0.016841 0.089617 0.289148
-0.053845 0.106144 0.279637
-0.054681 0.133909 0.294097
-0.068266 0.157975 0.300239
-0.080553 0.182465 0.307252
-0.097199 0.206230 0.311704
-0.127362 0.228127 0.308441
-0.157315 0.251109 0.305860
-0.168659 0.277269 0.314215
-0.199621 0.301818 0.311964
-0.234523 0.327239 0.308214
-0.045661 0.109455 0.281859
-0.048772 0.136407 0.294741
-0.068652 0.158832 0.296800
-0.076114 0.184421 0.306765
-0.094332 0.207820 0.310171
-0.122802 0.229988 0.307783
-0.148554 0.253504 0.307473
-0.165657 0.278837 0.312463
-0.195728 0.303466 0.310576
-0.225497 0.329188 0.309428
-0.041444 0.111514 0.281690
-0.050014 0.136913 0.290974
-0.067513 0.159996 0.294516
-0.078179 0.184904 0.302472
-0.087482 0.210084 0.311258
-0.115866 0.232149 0.308756
-0.142363 0.255445 0.307860
-0.158573 0.280778 0.313232
-0.188564 0.305298 0.311224
-0.218257 0.330924 0.309950
-0.013106 0.120781 0.297417
-0.051169 0.137499 0.287051
-0.064703 0.161623 0.293091
-0.068918 0.187879 0.305001
-0.090284 0.210597 0.306309
-0.112944 0.233717 0.307169
-0.140218 0.256904 0.305715
-0.151411 0.282786 0.313867
-0.180483 0.307283 0.312193
-0.215152 0.332477 0.308049
-0.243608 0.359217 0.307882
-0.014268 0.121265 0.293560
-0.043686 0.140400 0.288762
-0.046824 0.166854 0.301315
-0.070889 0.188443 0.300556
-0.084165 0.212780 0.306781
-0.105117 0.236076 0.308520
-0.134771 0.258801 0.305499
-0.145916 0.284602 0.313585
-0.177429 0.308822 0.310406
-0.206145 0.334374 0.309364
-0.240451 0.360762 0.305904
-0.012395 0.122583 0.291923
-0.039419 0.142363 0.288595
-0.046477 0.167799 0.298569
-0.063318 0.190963 0.302287
-0.087830 0.213065 0.301481
-0.113696 0.235724 0.300274
-0.128587 0.260706 0.305951
-0.142166 0.286134 0.312541
-0.169444 0.310683 0.311604
-0.202287 0.335862 0.308133
-0.233148 0.362345 0.306376
-0.018173 0.121711 0.284923
-0.029602 0.145858 0.291915
-0.046044 0.168831 0.295675
-0.063670 0.191864 0.298851
-0.086552 0.214340 0.298994
-0.101792 0.238706 0.304109
-0.123146 0.262574 0.305783
-0.137501 0.287833 0.311825
-0.165553 0.312265 0.310319
-0.203379 0.337144 0.303974
-0.224913 0.364037 0.307155
-0.039359 0.171271 0.297031
-0.059300 0.193696 0.298602
-0.080508 0.216406 0.299664
-0.095685 0.240676 0.304705
-0.121894 0.263812 0.303367
-0.130439 0.289694 0.312728
-0.160915 0.313825 0.309690
-0.187758 0.339275 0.309254
-0.221001 0.365480 0.305867
-0.254778 0.392953 0.302877
-0.008526 0.153096 0.299875
-0.032603 0.173784 0.298265
-0.058041 0.194926 0.296185
-0.060698 0.221036 0.308741
-0.091938 0.242339 0.303681
-0.115632 0.265768 0.303725
-0.126604 0.291284 0.311576
-0.157021 0.315393 0.308439
-0.186327 0.340689 0.306514
-0.211934 0.367165 0.307166
-0.246472 0.394491 0.303567
-0.008180 0.153982 0.297204
-0.029872 0.175271 0.297095
-0.046500 0.198223 0.300556
-0.057899 0.222479 0.307477
-0.089895 0.243658 0.301836
-0.109458 0.267621 0.304267
-0.125330 0.292522 0.309149
-0.147392 0.317320 0.310697
-0.175767 0.342499 0.309094
-0.210553 0.368513 0.304541
-0.239963 0.395912 0.303569
-0.030286 0.176011 0.293862
-0.045319 0.199359 0.298318
-0.057506 0.223490 0.304708
-0.086227 0.245219 0.300994
-0.105744 0.269152 0.303358
-0.117452 0.294434 0.310606
-0.144421 0.318712 0.309177
-0.171912 0.343928 0.307963
-0.199905 0.370118 0.306998
-0.234304 0.397312 0.303146
-0.024323 0.178304 0.294637
-0.039285 0.201556 0.299020
-0.061035 0.223856 0.299249
-0.077615 0.247600 0.303017
-0.101943 0.270757 0.302305
-0.111967 0.296163 0.310476
-0.147165 0.319745 0.304148
-0.166294 0.345525 0.307620
-0.192543 0.371700 0.307472
-0.228552 0.398791 0.302567
-0.255753 0.427128 0.303054
-0.037222 0.202919 0.297168
-0.055729 0.225805 0.299373
-0.073058 0.249350 0.302563
-0.100588 0.272046 0.299780
-0.106486 0.297877 0.310367
-0.130835 0.322214 0.310173
-0.160680 0.347114 0.307302
-0.186027 0.373246 0.307514
-0.216893 0.400271 0.305215
-0.253338 0.428607 0.300593
-0.028956 0.178963 0.285412
-0.028102 0.205659 0.300129
-0.041705 0.229211 0.305296
-0.079086 0.249423 0.295721
-0.092793 0.274061 0.301397
-0.104379 0.299167 0.308479
-0.125380 0.323767 0.310153
-0.160990 0.348316 0.303844
-0.181285 0.374638 0.306818
-0.214623 0.401626 0.303036
-0.240846 0.429743 0.303732
-0.023848 0.180978 0.285844
-0.026119 0.206926 0.298454
-0.038097 0.230764 0.304607
-0.075408 0.250962 0.294926
-0.096399 0.274654 0.296053
-0.098164 0.300859 0.309060
-0.124887 0.324939 0.307245
-0.150472 0.350030 0.306589
-0.178218 0.375986 0.305202
-0.206450 0.402967 0.304094
-0.234298 0.431003 0.303756
-0.025703 0.181447 0.281404
-0.026422 0.207798 0.295075
-0.035205 0.232244 0.303271
-0.078090 0.251621 0.289924
-0.085271 0.277123 0.299562
-0.095966 0.302221 0.307036
-0.117693 0.326675 0.308069
-0.143202 0.351656 0.307296
-0.169201 0.377546 0.306728
-0.198192 0.404381 0.305012
-0.227657 0.432336 0.303628
-0.021294 0.183344 0.281188
-0.037093 0.232897 0.298842
-0.073512 0.253350 0.289500
-0.082277 0.278588 0.298082
-0.095397 0.303430 0.304027
-0.115452 0.328045 0.305990
-0.134280 0.353341 0.308999
-0.165206 0.378982 0.305454
-0.192463 0.405787 0.304571
-0.221020 0.433663 0.303527
-0.019226 0.184699 0.279397
-0.009650 0.212999 0.299858
-0.034189 0.234369 0.297516
-0.068935 0.255072 0.289095
-0.071985 0.280918 0.301166
-0.089917 0.305093 0.304007
-0.107442 0.329803 0.307358
-0.133658 0.354645 0.305906
-0.158708 0.380454 0.305620
-0.186736 0.407186 0.304155
-0.213546 0.434944 0.303915
-0.249250 0.464189 0.299483
-0.015676 0.186326 0.278822
-0.022620 0.211278 0.288218
-0.029774 0.236032 0.297388
-0.058024 0.257629 0.292976
-0.073937 0.281702 0.296837
-0.087791 0.306361 0.302166
-0.103642 0.331188 0.306454
-0.128978 0.356030 0.305402
-0.156472 0.381744 0.303595
-0.181108 0.408469 0.303932
-0.209544 0.436212 0.302666
-0.240961 0.465215 0.300386
-0.022240 0.185674 0.271309
-0.024538 0.211761 0.283919
-0.025360 0.237688 0.297278
-0.052742 0.259350 0.293289
-0.071023 0.283064 0.295551
-0.080770 0.308075 0.303344
-0.099841 0.332558 0.305564
-0.126779 0.357304 0.303453
-0.148409 0.383136 0.304932
-0.176320 0.409751 0.303261
-0.212268 0.437684 0.297727
-0.234370 0.466314 0.300415
-0.027222 0.185381 0.264837
-0.034295 0.210706 0.274304
-0.017776 0.239871 0.299283
-0.052266 0.260383 0.290516
-0.069722 0.284229 0.293254
-0.077013 0.309474 0.302534
-0.096860 0.333869 0.304190
-0.121274 0.358711 0.303472
-0.141187 0.384491 0.305820
-0.169862 0.411010 0.303554
-0.195660 0.438541 0.303466
-0.227785 0.467406 0.300472
-0.022012 0.187432 0.265190
-0.037657 0.210984 0.268751
-0.046899 0.262171 0.290712
-0.067519 0.285569 0.291320
-0.069916 0.311239 0.303611
-0.090510 0.335466 0.304666
-0.114855 0.360220 0.303840
-0.137196 0.385868 0.304642
-0.165816 0.412366 0.302281
-0.188210 0.439757 0.303970
-0.214365 0.468182 0.304045
-0.026187 0.187329 0.259229
-0.031687 0.213021 0.269740
-0.003346 0.244127 0.302717
-0.036831 0.264537 0.294210
-0.054127 0.288112 0.296754
-0.069409 0.312331 0.300807
-0.087527 0.336763 0.303321
-0.114297 0.361407 0.300944
-0.139098 0.387077 0.300245
-0.156033 0.413560 0.304530
-0.180028 0.440834 0.305146
-0.215371 0.469676 0.300027
-0.252035 0.500086 0.294970
-0.022517 0.189029 0.258520
-0.032675 0.213761 0.265782
-0.022562 0.241871 0.286652
-0.034667 0.265848 0.292368
-0.048714 0.289789 0.296928
-0.074476 0.313012 0.294278
-0.084450 0.338133 0.301833
-0.105415 0.362989 0.302840
-0.128479 0.388527 0.302983
-0.152825 0.414908 0.302824
-0.176776 0.442168 0.303362
-0.206179 0.470665 0.301373
-0.243602 0.501009 0.295693
-0.017386 0.190978 0.259059
-0.029832 0.215175 0.264652
-0.007883 0.245189 0.293508
-0.038156 0.266310 0.287002
-0.043392 0.291379 0.297276
-0.065848 0.314814 0.296576
-0.081462 0.339415 0.300510
-0.101565 0.364286 0.301950
-0.122929 0.389810 0.302994
-0.153864 0.416212 0.298886
-0.175289 0.443472 0.300812
-0.199618 0.471691 0.301542
-0.238654 0.502101 0.294809
-0.022122 0.190882 0.252232
-0.027594 0.216596 0.262699
-0.010394 0.245783 0.288402
-0.030323 0.268464 0.288704
-0.044313 0.292405 0.293181
-0.061904 0.316338 0.295525
-0.079103 0.340814 0.298382
-0.098349 0.365722 0.300259
-0.118018 0.391245 0.302214
-0.146397 0.417575 0.299443
-0.161921 0.444490 0.304578
-0.193697 0.472936 0.300924
-0.229291 0.503017 0.295877
-0.014587 0.193402 0.254289
-0.026214 0.217783 0.260359
-0.006679 0.247336 0.287708
-0.073328 0.290280 0.270927
-0.058856 0.317708 0.294128
-0.071951 0.342404 0.299468
-0.093584 0.367114 0.299741
-0.114026 0.392579 0.301122
-0.136550 0.418783 0.301653
-0.158668 0.445794 0.302849
-0.193735 0.474460 0.297224
-0.218367 0.503654 0.298082
-0.252507 0.535001 0.294093
0.016968 0.174714 0.259931
-0.015699 0.193916 0.250623
-0.026557 0.218516 0.257225
0.003935 0.249870 0.292153
-0.016620 0.272193 0.291736
-0.069653 0.291621 0.270351
-0.050342 0.319379 0.296664
-0.073922 0.343297 0.295278
-0.089008 0.368323 0.299556
-0.107757 0.393751 0.301849
-0.132704 0.419905 0.300821
-0.153118 0.446805 0.302904
-0.182272 0.475032 0.300452
-0.216057 0.504841 0.296073
-0.246566 0.536019 0.293448
0.003099 0.172113 0.246568
-0.012784 0.195417 0.249416
-0.022832 0.220142 0.256524
-0.013652 0.273577 0.290485
-0.062601 0.293467 0.271588
-0.046492 0.320800 0.295820
-0.065963 0.344917 0.296915
-0.091594 0.369473 0.294531
-0.105411 0.395055 0.299800
-0.131142 0.421238 0.298212
-0.149033 0.448058 0.301684
-0.175629 0.476086 0.300551
-0.209342 0.505822 0.296034
-0.240736 0.536921 0.293007
0.008167 0.174106 0.247238
-0.016859 0.195351 0.243385
-0.019969 0.221534 0.255436
-0.006817 0.275401 0.292064
-0.027743 0.298185 0.291498
-0.040319 0.322316 0.296705
-0.067824 0.345898 0.292569
-0.082026 0.370909 0.297249
-0.101515 0.396271 0.298914
-0.123895 0.422358 0.299206
-0.143388 0.449142 0.301613
-0.168262 0.476988 0.301322
-0.203576 0.506774 0.295736
-0.234801 0.537910 0.292411
0.010284 0.175432 0.245550
-0.007799 0.198165 0.246621
-0.006175 0.225014 0.261899
-0.017269 0.275006 0.281717
-0.031896 0.298785 0.285439
-0.040484 0.323401 0.293279
-0.061490 0.347400 0.293219
-0.078080 0.372235 0.296293
-0.094245 0.397582 0.299890
-0.119029 0.423611 0.298589
-0.139304 0.450373 0.300428
-0.166623 0.478365 0.298622
-0.198542 0.507888 0.294816
-0.225737 0.538291 0.294031
0.015262 0.177330 0.246392
-0.007345 0.199007 0.244059
-0.017331 0.223725 0.251085
-0.022690 0.300654 0.288697
-0.039216 0.324448 0.291197
-0.048082 0.349107 0.298860
-0.071069 0.373480 0.297701
-0.092904 0.398688 0.297688
-0.113541 0.424659 0.298809
-0.132940 0.451303 0.301049
-0.158537 0.479090 0.300087
-0.188720 0.508328 0.297082
-0.220650 0.539346 0.293029
0.004538 0.175542 0.235142
-0.014349 0.198377 0.235628
-0.013596 0.225329 0.250427
-0.029199 0.301020 0.281024
-0.034558 0.325899 0.290930
-0.043385 0.350492 0.298540
-0.073620 0.374630 0.292683
-0.087277 0.399970 0.297701
-0.113608 0.425999 0.295252
-0.124729 0.452314 0.302345
-0.168502 0.481303 0.290688
-0.181199 0.509170 0.297628
-0.212224 0.539990 0.293899
-0.249829 0.572766 0.288025
0.002157 0.175777 0.230054
-0.007587 0.200677 0.237242
-0.012174 0.226493 0.248119
-0.019821 0.303012 0.284033
-0.030701 0.327276 0.290153
-0.039496 0.351817 0.297718
-0.074530 0.375817 0.288675
-0.085734 0.401245 0.295203
-0.108743 0.427223 0.294683
-0.126423 0.453801 0.297791
-0.153581 0.481698 0.295703
-0.177844 0.510401 0.295842
-0.207144 0.541016 0.292946
-0.247191 0.574136 0.285575
0.008081 0.178003 0.231193
-0.006929 0.201674 0.234391
-0.013055 0.227241 0.244147
-0.004919 0.305547 0.290846
-0.030036 0.328412 0.287267
-0.040429 0.352909 0.293769
-0.069761 0.377143 0.288276
-0.079296 0.402498 0.295761
-0.103880 0.428432 0.294135
-0.117398 0.454739 0.299627
-0.148615 0.482805 0.294974
-0.171164 0.511295 0.295968
-0.201234 0.541931 0.292481
-0.238700 0.574635 0.286337
0.004220 0.177886 0.224958
-0.008542 0.202194 0.229845
-0.012385 0.228266 0.241282
0.009158 0.307965 0.297190
-0.013427 0.330712 0.295038
-0.041348 0.354001 0.289811
-0.065801 0.378447 0.287377
-0.072865 0.403744 0.296347
-0.099017 0.429633 0.293606
-0.113319 0.455918 0.298536
-0.141173 0.483713 0.295725
-0.166151 0.512342 0.295168
-0.196378 0.542752 0.291919
-0.230448 0.574913 0.287494
0.000203 0.177623 0.218984
-0.006523 0.203358 0.228405
-0.012653 0.228999 0.238147
-0.010563 0.331840 0.294082
-0.040837 0.355011 0.287197
-0.052349 0.379773 0.293042
-0.077192 0.404857 0.290604
-0.091908 0.430586 0.294926
-0.110263 0.456966 0.297285
-0.134772 0.484489 0.296347
-0.160522 0.513111 0.295205
-0.188814 0.543433 0.292441
-0.226976 0.576129 0.285558
0.010639 0.180905 0.223587
-0.005076 0.204516 0.226116
-0.004297 0.231402 0.240898
-0.005131 0.333290 0.294457
-0.036927 0.356323 0.286404
-0.054045 0.380931 0.288542
-0.071571 0.406088 0.290703
-0.092761 0.431934 0.290895
-0.104544 0.458043 0.297219
-0.132288 0.485757 0.294218
-0.153860 0.513968 0.295408
-0.183747 0.544415 0.291578
-0.216018 0.576187 0.287807
0.010568 0.181681 0.220193
-0.006653 0.205044 0.221555
-0.005139 0.232149 0.236923
-0.001290 0.334616 0.293780
-0.025827 0.357949 0.290408
-0.050091 0.382198 0.287697
-0.076477 0.407384 0.284111
-0.087087 0.433084 0.290925
-0.102101 0.459288 0.295175
-0.125687 0.486687 0.294556
-0.149681 0.515067 0.294190
-0.176308 0.544964 0.292329
-0.212664 0.577286 0.286091
0.010419 0.182384 0.216935
-0.250230 0.611418 0.280036
0.001527 0.207520 0.224548
0.007696 0.235255 0.243258
-0.021225 0.359195 0.290342
-0.049447 0.383326 0.284915
-0.072564 0.408535 0.283349
-0.084768 0.434241 0.289091
-0.095671 0.460204 0.295811
-0.120018 0.487581 0.294591
-0.143960 0.515888 0.294126
-0.170421 0.545814 0.291988
0.021278 0.158414 0.207466
-0.206706 0.578077 0.285613
0.011865 0.183520 0.214689
-0.241710 0.611718 0.280791
-0.003052 0.207432 0.217697
0.027463 0.239622 0.254615
-0.001397 0.361129 0.300316
-0.044685 0.384593 0.284622
-0.065324 0.409729 0.284529
-0.075853 0.435252 0.291210
-0.095671 0.461589 0.292280
-0.115071 0.488621 0.293992
-0.136491 0.516613 0.294891
-0.163824 0.546444 0.292318
0.025571 0.160231 0.207724
-0.196729 0.578114 0.287681
0.015463 0.185095 0.214327
-0.234149 0.612048 0.281304
0.003610 0.209578 0.219581
-0.002392 0.362110 0.296563
-0.040826 0.385758 0.283969
-0.052553 0.410762 0.289545
-0.077587 0.436541 0.286835
-0.089246 0.462483 0.292952
-0.111866 0.489705 0.292577
-0.131602 0.517500 0.294388
-0.158057 0.547177 0.292195
0.029863 0.162041 0.208001
-0.191727 0.578913 0.286963
0.015338 0.185798 0.211070
-0.230737 0.613117 0.279536
0.004241 0.210494 0.216882
-0.250179 0.645029 0.283701
-0.016081 0.362601 0.284181
-0.033767 0.386960 0.285454
-0.048660 0.411875 0.288855
-0.074450 0.437655 0.285545
-0.090961 0.463874 0.288569
-0.109475 0.490848 0.290671
-0.132459 0.519016 0.290465
-0.152187 0.547983 0.291928
0.026160 0.161799 0.201688
-0.187438 0.579931 0.285619
0.016060 0.186758 0.208254
-0.220590 0.613052 0.281313
0.004975 0.211483 0.214043
-0.245783 0.646003 0.282153
-0.009796 0.363956 0.285104
-0.033009 0.388147 0.282555
-0.050291 0.413135 0.284348
-0.076056 0.439032 0.281004
-0.078753 0.464475 0.292688
-0.106975 0.492079 0.288617
-0.122547 0.519419 0.292778
-0.146210 0.548862 0.291518
0.021108 0.161271 0.194037
-0.179740 0.580495 0.286022
0.013174 0.186927 0.202373
-0.214471 0.613835 0.280630
0.005060 0.212398 0.210481
-0.237958 0.646370 0.282265
0.008449 0.365802 0.294050
-0.034534 0.389392 0.277901
-0.050200 0.414461 0.280732
-0.070283 0.440204 0.280978
-0.078626 0.465925 0.289029
-0.097848 0.492797 0.290439
-0.115816 0.520262 0.292996
-0.140459 0.549550 0.291465
0.014435 0.160216 0.185452
-0.174748 0.581264 0.285368
0.010865 0.187132 0.197340
-0.207767 0.614253 0.280791
0.008717 0.213908 0.210107
-0.233684 0.647219 0.280939
-0.000413 0.366506 0.284851
-0.029075 0.390550 0.278366
-0.043891 0.415516 0.281654
-0.056667 0.440864 0.286503
-0.073029 0.466834 0.289272
-0.103583 0.494665 0.283516
-0.112572 0.521294 0.291577
-0.134713 0.550232 0.291435
0.019490 0.162216 0.186322
-0.168114 0.581748 0.285690
0.021887 0.190384 0.202885
-0.197779 0.614033 0.282859
0.003395 0.213629 0.202746
-0.228586 0.647886 0.280087
-0.038389 0.416578 0.282069
-0.055945 0.442050 0.283705
-0.073900 0.468160 0.285412
-0.092242 0.494972 0.287221
-0.107696 0.522130 0.291165
-0.133060 0.551477 0.288976
0.017240 0.162319 0.181265
-0.159030 0.581806 0.287481
0.017376 0.190084 0.196085
-0.198490 0.615828 0.278837
0.008557 0.215432 0.203548
-0.219375 0.647666 0.281568
-0.017382 0.392828 0.279905
-0.039279 0.417751 0.278238
-0.052004 0.443083 0.283009
-0.066690 0.468937 0.286721
-0.086597 0.495779 0.287410
-0.101196 0.522767 0.291772
-0.126391 0.552107 0.289309
0.018747 0.163440 0.179038
-0.154757 0.582759 0.286247
0.018885 0.191205 0.193856
-0.190044 0.615989 0.279844
0.013065 0.217161 0.203644
-0.219919 0.649644 0.277338
-0.003132 0.394073 0.286265
-0.034475 0.418886 0.277998
-0.054372 0.444490 0.277958
-0.069052 0.470468 0.281670
-0.082470 0.496819 0.286441
-0.097033 0.523763 0.290741
-0.128693 0.554019 0.284236
0.018078 0.163997 0.175020
-0.148851 0.583433 0.285998
0.019663 0.192157 0.191038
-0.181610 0.616128 0.280888
0.003424 0.216091 0.192573
-0.207322 0.648772 0.280560
-0.244800 0.685424 0.274309
0.009502 0.395275 0.291600
-0.036834 0.420168 0.272941
-0.046317 0.445413 0.279773
-0.065764 0.471596 0.280256
-0.084804 0.498474 0.281382
-0.096114 0.525141 0.287706
-0.116443 0.553711 0.288239
0.022412 0.165784 0.175333
-0.145512 0.584414 0.284480
0.012270 0.191219 0.181809
-0.175761 0.616634 0.280705
0.013055 0.218757 0.196944
-0.201423 0.649205 0.280269
-0.240474 0.686208 0.272965
-0.032920 0.421238 0.272329
-0.043174 0.446468 0.278586
-0.062579 0.472636 0.279007
-0.071903 0.498540 0.286254
-0.091245 0.525939 0.287364
-0.113966 0.554810 0.286320
0.020941 0.166084 0.170850
-0.141354 0.585250 0.283459
0.018122 0.193256 0.183291
-0.180528 0.619220 0.274311
0.013019 0.219519 0.193659
-0.198800 0.650355 0.278120
-0.234512 0.686581 0.272555
-0.013147 0.421912 0.282556
-0.040027 0.447523 0.277408
-0.049774 0.472951 0.284071
-0.075134 0.500189 0.280838
-0.086380 0.526730 0.287040
-0.108939 0.555631 0.285747
0.018858 0.166282 0.165615
-0.137084 0.586173 0.282291
0.022596 0.195029 0.183459
-0.167219 0.618348 0.278313
0.009387 0.219644 0.187259
-0.187887 0.649776 0.280525
-0.225979 0.686435 0.273375
-0.026578 0.423465 0.269921
-0.035980 0.448607 0.276630
-0.046496 0.474043 0.282714
-0.076627 0.501771 0.276289
-0.078987 0.527280 0.288110
-0.103106 0.556320 0.285698
0.025468 0.168678 0.167628
-0.130378 0.586649 0.282617
0.022680 0.195820 0.180042
-0.160449 0.618744 0.278507
0.016135 0.221768 0.189179
-0.178627 0.649534 0.282031
-0.223985 0.687892 0.270522
0.000359 0.423978 0.285007
-0.039880 0.450094 0.270494
-0.042416 0.475076 0.281899
-0.067669 0.502284 0.278500
-0.076440 0.528438 0.286135
-0.098198 0.557030 0.285324
0.026199 0.169535 0.164950
-0.122985 0.586883 0.283628
0.029249 0.197988 0.182179
-0.155429 0.619366 0.277927
0.022774 0.223812 0.191267
-0.176011 0.650655 0.279941
-0.213962 0.687211 0.272507
-0.245650 0.723841 0.269522
0.005023 0.424959 0.285051
-0.037512 0.451178 0.268797
-0.039241 0.476072 0.280717
-0.068450 0.503690 0.274628
-0.080431 0.530335 0.280212
-0.095603 0.558188 0.283297
0.024153 0.169740 0.159703
-0.120343 0.588056 0.281529
0.023512 0.197490 0.173939
-0.145430 0.619081 0.280123
0.022865 0.224640 0.187851
-0.170833 0.651300 0.279122
-0.203834 0.686596 0.274361
-0.241968 0.724874 0.267533
-0.023944 0.451721 0.274531
-0.039144 0.477405 0.277267
-0.067506 0.505016 0.271644
-0.071440 0.530650 0.282368
0.050444 0.149183 0.163965
-0.090699 0.558884 0.282958
0.025625 0.170773 0.157630
-0.119425 0.589433 0.278601
0.026442 0.198846 0.173074
-0.142043 0.620011 0.278613
0.033909 0.227497 0.193582
-0.159292 0.650362 0.282329
-0.200343 0.687519 0.272674
-0.230289 0.723540 0.270331
-0.022377 0.452827 0.272331
-0.032780 0.478138 0.278240
-0.064268 0.506005 0.270396
-0.067386 0.531500 0.281609
0.063935 0.153572 0.172424
-0.086602 0.559697 0.282126
0.027821 0.171989 0.156172
-0.108823 0.589045 0.281679
0.025740 0.199402 0.169183
-0.139462 0.621095 0.276624
-0.157489 0.651637 0.279808
-0.191987 0.687190 0.273829
-0.223501 0.723548 0.270412
-0.027908 0.454343 0.265232
-0.035949 0.479654 0.272798
-0.062621 0.507163 0.268099
-0.067334 0.532869 0.278265
0.037842 0.146898 0.146221
-0.089617 0.561726 0.276551
0.030835 0.173447 0.155198
-0.105371 0.590048 0.280123
0.023701 0.199717 0.163928
-0.134339 0.621762 0.275956
-0.152326 0.652245 0.279057
-0.186757 0.687768 0.272952
-0.217401 0.723855 0.269879
0.008468 0.453479 0.286924
-0.030273 0.480519 0.273113
-0.050514 0.507258 0.272549
-0.064761 0.534005 0.276329
0.043557 0.149103 0.147898
-0.080702 0.561756 0.278815
0.033039 0.174656 0.153754
-0.101229 0.590803 0.279240
0.033890 0.202641 0.169181
-0.127726 0.621996 0.276463
-0.145673 0.652377 0.279461
-0.182462 0.688449 0.271793
-0.213052 0.724522 0.268617
-0.239806 0.760888 0.268377
-0.004939 0.455442 0.274381
-0.038947 0.482511 0.263872
-0.045694 0.508042 0.272414
-0.063890 0.535272 0.273507
0.045128 0.150187 0.145736
-0.075691 0.562503 0.278383
0.031058 0.174868 0.148482
-0.100983 0.592392 0.275683
0.025363 0.201556 0.158419
-0.120199 0.622128 0.277331
-0.142129 0.653351 0.277780
-0.174818 0.688376 0.272386
-0.203734 0.723885 0.269996
-0.232051 0.760609 0.268681
-0.012735 0.481574 0.278298
-0.047905 0.509705 0.267341
-0.061305 0.536401 0.271584
0.043085 0.150217 0.140599
-0.077983 0.564319 0.273473
0.033275 0.176069 0.147042
-0.096036 0.592993 0.275331
0.034816 0.204296 0.163102
-0.122433 0.624209 0.272406
-0.136292 0.653644 0.277743
-0.168115 0.688406 0.272701
-0.198588 0.724295 0.269245
-0.228465 0.761481 0.266905
