0.011184 -0.765578 -0.085853
0.000890 -0.330516 0.138325
0.025414 -0.734478 -0.056920
-0.007648 -0.305213 0.150947
0.027154 -0.703074 -0.038382
0.012707 -0.283939 0.168761
0.031535 -0.677027 -0.020084
0.012731 -0.254611 0.188398
0.018573 -0.646069 -0.015545
0.028013 -0.240915 0.196638
0.028853 -0.618299 0.006125
0.011710 -0.203584 0.201753
0.028995 -0.587758 0.020009
0.022222 -0.561044 0.031698
0.017470 -0.530295 0.032907
0.002214 -0.506490 0.033044
0.014564 -0.483845 0.053189
0.005489 -0.081166 0.263473
0.016871 -0.455730 0.068363
-0.002582 -0.049034 0.270767
0.012872 -0.434900 0.081929
-0.031488 0.005167 0.273822
0.014088 -0.406505 0.101662
-0.048540 0.040878 0.276133
0.008305 -0.827471 -0.130179
0.015542 -0.380443 0.116197
0.027652 -0.788879 -0.087955
0.013748 -0.353180 0.126836
0.012492 -0.765758 -0.089648
0.001269 -0.329142 0.137584
0.024954 -0.733207 -0.059917
0.023463 -0.303280 0.160274
0.029214 -0.705103 -0.037447
0.019551 -0.281940 0.177496
0.028496 -0.674729 -0.026325
0.024608 -0.260897 0.186652
0.021163 -0.645433 -0.017675
0.031453 -0.617649 0.005210
0.015075 -0.206414 0.203122
0.033950 -0.586302 0.018881
0.026945 -0.561759 0.031832
0.021425 -0.531899 0.033714
0.016398 -0.502788 0.037658
0.017533 -0.484466 0.053561
0.015682 -0.455028 0.066838
0.002282 -0.050258 0.271680
0.014616 -0.434972 0.081149
-0.006369 -0.013414 0.278699
0.015810 -0.406572 0.101424
-0.046026 0.041438 0.276107
0.006321 -0.827798 -0.135600
0.017310 -0.381128 0.114791
0.026450 -0.791955 -0.097892
0.010003 -0.351451 0.123508
0.021043 -0.760059 -0.084460
0.009280 -0.328512 0.140130
0.027830 -0.731183 -0.063092
0.027137 -0.306166 0.161692
0.030158 -0.702456 -0.043622
0.025053 -0.283742 0.178173
0.029437 -0.673663 -0.029562
0.022327 -0.644252 -0.020016
0.034531 -0.616010 0.001868
0.027341 -0.212790 0.206766
0.036557 -0.585880 0.017111
0.027506 -0.560753 0.030287
0.023753 -0.531203 0.033206
0.024862 -0.504672 0.041948
0.020004 -0.484153 0.053362
0.020029 -0.452897 0.067293
0.019353 -0.423456 0.078911
-0.003866 -0.013569 0.278829
0.018001 -0.406250 0.099565
-0.043513 0.043712 0.275225
0.009788 -0.827495 -0.142408
0.019626 -0.377022 0.110972
0.021751 -0.793632 -0.106838
0.011968 -0.350792 0.123248
0.022854 -0.759111 -0.085935
0.024880 -0.331245 0.144167
0.029244 -0.729225 -0.070018
0.033981 -0.310536 0.162277
0.030187 -0.700671 -0.049210
0.030802 -0.672885 -0.033559
0.024477 -0.642662 -0.022732
0.035296 -0.615198 -0.000356
0.038331 -0.584522 0.014795
0.035558 -0.560166 0.026447
0.026160 -0.530365 0.032493
0.021806 -0.510856 0.044667
0.021848 -0.482328 0.053926
0.020636 -0.451946 0.066523
0.022112 -0.423930 0.077709
0.019929 -0.406625 0.097567
-0.012895 0.022151 0.283666
0.013118 -0.827378 -0.142183
0.018704 -0.375488 0.108191
0.016569 -0.793645 -0.120186
0.032096 -0.355453 0.130720
0.022307 -0.761373 -0.088677
0.033637 -0.332366 0.143713
0.029871 -0.729336 -0.071736
0.031979 -0.700639 -0.050851
0.033050 -0.672224 -0.034340
0.026600 -0.642046 -0.026413
0.016875 -0.225216 0.186333
0.034712 -0.614326 -0.002989
0.039908 -0.583487 0.012493
0.036491 -0.559010 0.024435
0.028591 -0.529034 0.031059
0.023109 -0.508535 0.042241
0.022763 -0.481438 0.052930
0.024090 -0.450451 0.066637
0.022616 -0.424351 0.076647
0.027760 -0.409246 0.095933
-0.007230 0.015072 0.282173
0.013589 -0.825908 -0.142037
0.016644 -0.371046 0.100451
0.017080 -0.792852 -0.120800
0.032179 -0.355191 0.129589
0.023264 -0.759800 -0.091279
0.029500 -0.331975 0.144379
0.031089 -0.728279 -0.073748
0.032871 -0.699709 -0.053043
0.035194 -0.671297 -0.038133
0.028272 -0.642935 -0.029348
0.016598 -0.220683 0.178033
0.036957 -0.613079 -0.006095
0.040459 -0.582811 0.009888
0.035649 -0.558089 0.023627
0.032283 -0.528082 0.029649
0.025087 -0.508692 0.042021
0.026163 -0.479784 0.050872
0.021144 -0.453827 0.064928
0.024857 -0.424840 0.075601
0.021310 -0.401969 0.090761
0.015747 -0.826444 -0.143160
0.018358 -0.369302 0.096290
0.018903 -0.791240 -0.120817
0.037564 -0.354964 0.129321
0.026645 -0.756205 -0.095190
0.031542 -0.728348 -0.074440
0.033672 -0.697587 -0.055479
0.035870 -0.670127 -0.039771
0.029728 -0.641871 -0.033194
0.020739 -0.219310 0.177662
0.038047 -0.612705 -0.007536
0.035064 -0.580111 0.002984
0.037803 -0.557390 0.021840
0.033618 -0.527217 0.028164
0.027694 -0.509314 0.042513
0.030297 -0.477606 0.050337
0.023409 -0.450070 0.061309
0.024762 -0.422846 0.071114
0.019479 -0.399972 0.085282
0.020219 -0.821817 -0.148046
0.017035 -0.367211 0.089466
0.022751 -0.790707 -0.121381
0.026821 -0.758184 -0.100482
0.035812 -0.726226 -0.077938
0.034820 -0.696271 -0.061359
0.038805 -0.670050 -0.039897
0.031982 -0.640208 -0.034277
0.023219 -0.220028 0.177895
0.038910 -0.611723 -0.012216
0.036296 -0.579677 0.000697
0.038171 -0.555420 0.019123
0.037064 -0.526367 0.026233
0.028918 -0.506116 0.037805
0.032505 -0.476867 0.047428
0.028506 -0.444513 0.050102
0.024963 -0.421811 0.066580
0.021951 -0.396983 0.080735
0.021414 -0.820578 -0.149891
0.016683 -0.365304 0.084760
0.024552 -0.788631 -0.122897
0.028769 -0.757559 -0.102962
0.035536 -0.725184 -0.081774
0.036616 -0.695060 -0.061510
0.040480 -0.668197 -0.043785
0.033315 -0.638790 -0.039161
0.022259 -0.217139 0.174051
0.038790 -0.610175 -0.015381
0.036755 -0.578975 -0.001683
0.044624 -0.554167 0.016162
0.038993 -0.524928 0.022796
0.032575 -0.505212 0.035808
0.032865 -0.476240 0.040548
0.029639 -0.444360 0.046724
0.024301 -0.420083 0.062750
0.022196 -0.394557 0.075081
0.020466 -0.822497 -0.150056
0.016072 -0.368112 0.080707
0.026072 -0.787190 -0.127108
0.029035 -0.757008 -0.105747
0.034691 -0.724257 -0.090457
0.037932 -0.695048 -0.065013
0.041109 -0.666934 -0.047419
0.036168 -0.637289 -0.041022
0.025396 -0.216306 0.174212
0.036482 -0.608472 -0.021365
0.036283 -0.577861 -0.006294
0.046120 -0.554115 0.012453
0.040993 -0.524346 0.019752
0.035756 -0.504025 0.029457
0.033942 -0.476397 0.038568
0.024003 -0.452677 0.048190
0.023302 -0.419386 0.055307
0.023857 -0.393242 0.072201
0.035737 -0.817009 -0.135510
0.018783 -0.366946 0.079569
0.027006 -0.786381 -0.129707
0.031340 -0.755174 -0.108919
0.036134 -0.722816 -0.095148
0.039450 -0.695209 -0.071158
0.042981 -0.666876 -0.049337
0.037544 -0.635696 -0.044668
0.020198 -0.212741 0.167455
0.038631 -0.606968 -0.027913
0.040194 -0.576567 -0.012865
0.039860 -0.549933 0.007533
0.038118 -0.522356 0.015160
0.030957 -0.501606 0.022078
0.031733 -0.474451 0.035084
0.031060 -0.441369 0.044634
0.024009 -0.419177 0.053198
0.024379 -0.391714 0.069843
0.031753 -0.817718 -0.144499
0.022001 -0.365028 0.075543
0.027780 -0.785847 -0.136293
0.033067 -0.755144 -0.112918
0.036769 -0.722614 -0.095695
0.039969 -0.694044 -0.073073
0.042184 -0.664212 -0.054884
0.038791 -0.634605 -0.047385
0.024854 -0.213676 0.167316
0.039125 -0.606461 -0.032078
0.042050 -0.575400 -0.013412
0.037487 -0.547725 0.001396
0.036711 -0.519651 0.005088
0.031324 -0.498164 0.017884
0.028422 -0.472345 0.027312
0.027857 -0.444488 0.043140
0.025157 -0.418869 0.050734
0.024824 -0.391906 0.068983
0.036034 -0.816710 -0.138615
0.023355 -0.365316 0.073152
0.028450 -0.784951 -0.141099
0.029868 -0.762131 -0.122084
0.037980 -0.722613 -0.096283
0.042202 -0.692298 -0.076516
0.042035 -0.662378 -0.059497
0.039949 -0.634311 -0.049484
0.039941 -0.606317 -0.033115
0.042849 -0.574931 -0.015666
0.038463 -0.547436 -0.001051
0.038115 -0.518870 0.002333
0.031678 -0.498117 0.015071
0.029272 -0.472151 0.025581
0.032913 -0.439185 0.035824
0.026590 -0.416826 0.047088
0.026493 -0.392392 0.063480
0.034898 -0.815655 -0.150475
0.025455 -0.365439 0.072804
0.030621 -0.783293 -0.142657
0.031374 -0.761298 -0.125612
0.039553 -0.720679 -0.100061
0.043231 -0.691512 -0.077877
0.043749 -0.662722 -0.063936
0.040979 -0.633182 -0.052364
0.041571 -0.604811 -0.036943
0.042478 -0.574207 -0.020882
0.038800 -0.547261 -0.003723
0.042156 -0.519441 0.001278
0.032235 -0.497140 0.009981
0.029580 -0.470294 0.020500
0.033690 -0.437210 0.033058
0.028498 -0.410693 0.042664
0.026505 -0.389818 0.059512
0.032507 -0.812204 -0.164207
0.026730 -0.364669 0.069252
0.032096 -0.783399 -0.147017
0.035691 -0.749958 -0.122683
0.042399 -0.718765 -0.106125
0.045077 -0.690861 -0.081342
0.045734 -0.660741 -0.065967
0.033540 -0.226775 0.135235
0.042247 -0.631409 -0.055699
0.042950 -0.602923 -0.039822
0.043761 -0.573667 -0.023174
0.043705 -0.544737 -0.008643
0.042950 -0.517136 -0.002628
0.034002 -0.496657 0.009197
0.032770 -0.467083 0.015614
0.034433 -0.437366 0.027949
0.029050 -0.410552 0.039847
0.027738 -0.387156 0.054793
0.024237 -0.819400 -0.180503
0.032549 -0.363512 0.074810
0.033853 -0.782221 -0.146742
0.037296 -0.749783 -0.115578
0.043368 -0.718617 -0.105427
0.047381 -0.689331 -0.086885
0.048936 -0.659587 -0.068721
0.034153 -0.226017 0.133549
0.044589 -0.629777 -0.061158
0.045560 -0.601688 -0.045874
0.044834 -0.573113 -0.025499
0.045252 -0.544888 -0.009653
0.042262 -0.516114 -0.004635
0.037813 -0.492072 0.002957
0.033033 -0.465589 0.012166
0.027772 -0.440425 0.029536
0.029749 -0.410270 0.037084
0.026867 -0.385275 0.048865
0.030782 -0.810178 -0.176277
0.034961 -0.363140 0.075092
0.034762 -0.782785 -0.153719
0.038111 -0.748894 -0.121774
0.045407 -0.716443 -0.113218
0.048145 -0.688814 -0.088929
0.050678 -0.659250 -0.069216
0.036191 -0.229187 0.132502
0.046724 -0.628552 -0.061771
0.046437 -0.600512 -0.045945
0.044990 -0.571611 -0.031264
0.046006 -0.543206 -0.013804
0.044542 -0.513775 -0.011052
0.038176 -0.490533 -0.001108
0.032715 -0.465257 0.005769
0.029576 -0.438062 0.024018
0.030090 -0.410008 0.031790
0.026735 -0.383698 0.045208
0.026079 -0.817140 -0.185031
0.037104 -0.357302 0.069238
0.035801 -0.782511 -0.159091
0.038374 -0.747925 -0.136212
0.047922 -0.715377 -0.116350
0.049352 -0.687342 -0.091129
0.052242 -0.658049 -0.071366
0.039232 -0.229809 0.136193
0.048298 -0.628426 -0.063049
0.048674 -0.600194 -0.043175
0.047026 -0.569703 -0.037374
0.047079 -0.542131 -0.017425
0.045665 -0.513172 -0.013503
0.039637 -0.490743 -0.002117
0.033818 -0.464607 0.003881
0.028741 -0.437388 0.016870
0.030829 -0.409035 0.029147
0.027845 -0.380935 0.041883
0.026813 -0.817400 -0.188429
0.037763 -0.357011 0.063146
0.034500 -0.783623 -0.165123
0.039145 -0.747640 -0.139912
0.049110 -0.715224 -0.116891
0.051409 -0.685776 -0.093121
0.054212 -0.657115 -0.074222
0.042455 -0.231271 0.130392
0.049780 -0.627351 -0.065568
0.051151 -0.599500 -0.045576
0.047571 -0.570219 -0.039356
0.047881 -0.541632 -0.018980
0.045787 -0.512333 -0.014046
0.041209 -0.489527 -0.006779
0.036302 -0.463358 0.000925
0.030136 -0.436330 0.014586
0.030953 -0.408097 0.026453
0.028617 -0.379912 0.039159
0.028576 -0.815819 -0.192855
0.038677 -0.354181 0.060759
0.035227 -0.782049 -0.165737
0.039733 -0.747144 -0.141702
0.050920 -0.713120 -0.121966
0.054202 -0.685400 -0.094391
0.058160 -0.655016 -0.071281
0.039690 -0.223484 0.112349
0.052024 -0.626203 -0.067306
0.053449 -0.599123 -0.046679
0.048649 -0.569060 -0.043162
0.048292 -0.542687 -0.022033
0.046943 -0.511520 -0.018003
0.041956 -0.488663 -0.009156
0.038203 -0.461550 -0.002626
0.032269 -0.435147 0.010636
0.032883 -0.406170 0.023330
0.029744 -0.379372 0.036045
0.028215 -0.817096 -0.198050
0.038569 -0.353456 0.060739
0.036199 -0.781602 -0.167080
0.041276 -0.748184 -0.145985
0.052519 -0.711793 -0.125001
0.055653 -0.685483 -0.096460
0.060597 -0.655993 -0.077495
0.039935 -0.223442 0.108700
0.053787 -0.624831 -0.071855
0.055735 -0.598517 -0.048774
0.052605 -0.568958 -0.038089
0.049097 -0.540476 -0.025595
0.048073 -0.510730 -0.020999
0.043951 -0.487633 -0.011764
0.038891 -0.458994 -0.006095
0.034275 -0.430260 0.007000
0.034372 -0.404882 0.017471
0.030713 -0.377140 0.033566
0.029195 -0.816212 -0.202111
0.039457 -0.353890 0.060185
0.036256 -0.780824 -0.171329
0.042839 -0.746724 -0.147037
0.054039 -0.711355 -0.125113
0.059231 -0.684948 -0.098645
0.064794 -0.654694 -0.076825
0.044107 -0.230914 0.120151
0.057433 -0.624376 -0.070421
0.057715 -0.597989 -0.051564
0.055067 -0.567189 -0.041005
0.050094 -0.539463 -0.030115
0.048866 -0.509731 -0.025571
0.044892 -0.486877 -0.014380
0.040611 -0.458505 -0.007773
0.035622 -0.429555 0.005659
0.036072 -0.403696 0.014780
0.030981 -0.376436 0.030543
0.031078 -0.813911 -0.201613
0.040649 -0.354268 0.056776
0.038714 -0.779978 -0.180135
0.043285 -0.747514 -0.152349
0.055625 -0.710937 -0.126564
0.062226 -0.684691 -0.100068
0.065483 -0.655181 -0.082027
0.060342 -0.622516 -0.072469
0.061095 -0.596540 -0.053897
0.058714 -0.566838 -0.041614
0.051647 -0.537943 -0.034678
0.049804 -0.507849 -0.028369
0.046351 -0.486066 -0.018384
-0.185182 0.101284 -0.042795
0.041759 -0.457981 -0.009957
0.037976 -0.428878 0.003576
0.036924 -0.399020 0.006746
0.032484 -0.376027 0.025101
0.033306 -0.814272 -0.211815
0.044353 -0.351623 0.045267
0.038845 -0.777966 -0.185387
0.047666 -0.746183 -0.154536
0.056620 -0.709806 -0.131068
0.063483 -0.683428 -0.103125
0.044495 -0.240331 0.097365
0.069641 -0.650929 -0.081995
0.062359 -0.621428 -0.074311
0.062886 -0.595553 -0.056144
0.061623 -0.565389 -0.042546
0.051829 -0.536587 -0.039059
0.051180 -0.506438 -0.031086
0.047158 -0.484864 -0.020041
0.043198 -0.458386 -0.009903
0.039964 -0.427633 -0.000011
0.038669 -0.397945 0.004623
0.034063 -0.376215 0.019680
0.034734 -0.812889 -0.211503
0.043019 -0.351821 0.036279
0.039963 -0.776867 -0.187526
0.050547 -0.742747 -0.154730
0.055930 -0.711005 -0.135761
0.064648 -0.680824 -0.108561
0.044238 -0.237793 0.083118
0.071749 -0.649599 -0.085382
0.063954 -0.621659 -0.077302
0.066364 -0.594760 -0.057018
0.067088 -0.564034 -0.044181
0.057794 -0.538224 -0.035584
0.053106 -0.506737 -0.031284
0.049122 -0.483106 -0.025012
0.046337 -0.455914 -0.015621
0.042322 -0.426581 -0.001468
0.040219 -0.394165 0.000528
0.037084 -0.376014 0.014014
0.037229 -0.810543 -0.202498
0.040065 -0.352738 0.037091
0.040625 -0.777387 -0.190407
0.051772 -0.744088 -0.159208
0.058605 -0.711105 -0.139363
0.065926 -0.680038 -0.110312
0.045139 -0.237865 0.087949
0.075359 -0.649073 -0.084852
0.066531 -0.620617 -0.078023
0.068785 -0.593793 -0.058730
0.069780 -0.564255 -0.044282
0.059600 -0.537760 -0.036329
0.054157 -0.504277 -0.037246
0.051141 -0.479298 -0.028321
-0.184385 0.103060 -0.044831
0.048663 -0.459262 -0.017995
0.044548 -0.426191 -0.003656
0.036031 -0.398962 0.000174
0.038742 -0.374699 0.011469
0.037372 -0.809845 -0.218622
0.041066 -0.342497 0.029008
0.042645 -0.776769 -0.194429
0.044781 -0.318969 0.046558
0.053916 -0.744258 -0.160910
0.064756 -0.707523 -0.136561
0.069459 -0.679239 -0.110518
0.048960 -0.242926 0.086814
0.076456 -0.648864 -0.089658
0.068430 -0.620095 -0.081808
0.071288 -0.593006 -0.061559
0.072029 -0.563563 -0.045478
0.062790 -0.535581 -0.041344
0.056566 -0.503323 -0.040418
0.052183 -0.478482 -0.031871
-0.182444 0.101550 -0.043954
0.049845 -0.455270 -0.021077
0.047018 -0.425331 -0.007289
0.039191 -0.397983 -0.002164
0.036937 -0.375662 0.008830
0.038209 -0.809040 -0.224188
0.035661 -0.340897 0.014400
0.042345 -0.776715 -0.204762
0.036840 -0.320793 0.036386
0.055427 -0.743019 -0.167739
0.066587 -0.707668 -0.134933
0.071600 -0.678871 -0.112121
0.053766 -0.245611 0.091579
0.079482 -0.648320 -0.087906
0.070959 -0.618956 -0.085200
0.072904 -0.592645 -0.062637
0.075978 -0.561656 -0.048410
0.066342 -0.535304 -0.041195
0.057271 -0.502922 -0.046290
0.052736 -0.477055 -0.035229
-0.184383 0.102926 -0.045383
0.048994 -0.455890 -0.023474
0.048281 -0.428727 -0.008230
0.041659 -0.397228 -0.002874
0.038856 -0.374009 0.006466
0.038258 -0.807779 -0.227546
0.037615 -0.335329 0.005073
0.043348 -0.776999 -0.204336
0.036377 -0.317475 0.034884
0.056310 -0.741665 -0.168423
0.068245 -0.705734 -0.146297
0.068144 -0.271813 0.087589
0.075365 -0.680458 -0.110423
0.048082 -0.239005 0.075721
0.077111 -0.652320 -0.092618
0.075370 -0.618833 -0.081322
0.076214 -0.591078 -0.065302
0.078652 -0.559941 -0.051122
0.069161 -0.535856 -0.039564
0.057440 -0.500362 -0.051858
0.052897 -0.477470 -0.040396
-0.182290 0.102154 -0.044571
0.051833 -0.452313 -0.030486
0.049560 -0.428808 -0.008992
0.044065 -0.397534 -0.006722
0.041220 -0.372465 0.003275
0.039270 -0.806845 -0.235338
0.038446 -0.334418 0.005012
0.047432 -0.773645 -0.201389
0.035701 -0.312355 0.017360
0.057902 -0.742115 -0.170994
0.064016 -0.297936 0.070088
0.070653 -0.705564 -0.151496
0.068176 -0.269122 0.079452
0.071713 -0.675891 -0.122004
0.046378 -0.234451 0.063486
0.076610 -0.648946 -0.094029
0.075134 -0.617044 -0.088034
0.078702 -0.589832 -0.066818
0.080647 -0.559365 -0.054044
0.071939 -0.533840 -0.041187
0.059085 -0.499317 -0.054955
0.054553 -0.475341 -0.047926
-0.181247 0.095482 -0.050701
0.052525 -0.453219 -0.031204
0.051748 -0.428820 -0.011378
0.047217 -0.396617 -0.007868
0.043535 -0.371356 0.001034
0.038637 -0.805940 -0.236363
0.039461 -0.333023 0.001999
0.047595 -0.771486 -0.216239
0.038481 -0.313824 0.022497
0.060552 -0.739689 -0.169923
0.058129 -0.293337 0.056443
0.071642 -0.704257 -0.147083
0.069267 -0.268864 0.079169
0.073828 -0.674570 -0.124582
0.048832 -0.236317 0.068627
0.078517 -0.650156 -0.093943
0.077272 -0.616264 -0.088903
0.080063 -0.589206 -0.067439
0.080973 -0.558087 -0.058166
0.074366 -0.534221 -0.041464
0.060634 -0.498465 -0.056106
0.055448 -0.474831 -0.048608
-0.181163 0.094992 -0.050457
0.054377 -0.451896 -0.033795
0.052381 -0.425976 -0.018835
0.050266 -0.393424 -0.012390
0.046903 -0.369929 -0.000079
0.037281 -0.807245 -0.245008
0.041403 -0.334941 0.003180
0.048169 -0.771209 -0.217435
0.034094 -0.309543 0.005954
0.063610 -0.740074 -0.180906
0.058568 -0.290338 0.053554
0.068681 -0.707938 -0.156177
0.069489 -0.267034 0.074757
0.075189 -0.674975 -0.129076
0.076422 -0.649338 -0.111135
0.077403 -0.613681 -0.099270
0.079619 -0.587118 -0.073919
0.081503 -0.556447 -0.064299
0.075198 -0.531521 -0.047543
0.060551 -0.496300 -0.061907
0.058174 -0.471175 -0.049309
-0.172181 0.095557 -0.051109
0.055301 -0.451145 -0.035572
0.053787 -0.424691 -0.023349
0.052582 -0.392219 -0.015661
0.049714 -0.369452 -0.003373
0.038745 -0.804764 -0.252114
0.039522 -0.336221 0.002827
0.048489 -0.770702 -0.221068
0.034279 -0.309212 0.003957
0.064448 -0.739054 -0.182640
0.061760 -0.289079 0.046557
0.069734 -0.706787 -0.159616
0.073067 -0.270679 0.076969
0.076424 -0.674285 -0.129445
0.083144 -0.250422 0.094973
0.077585 -0.647872 -0.109322
0.077426 -0.612757 -0.102893
0.078272 -0.582446 -0.088414
0.081774 -0.554659 -0.067083
0.076568 -0.529727 -0.052687
0.060905 -0.502543 -0.057476
0.059149 -0.470425 -0.051810
0.056782 -0.450729 -0.038789
0.055307 -0.421307 -0.027305
0.054687 -0.390652 -0.019048
0.050725 -0.369331 -0.004282
0.037509 -0.804797 -0.262729
0.041388 -0.334560 0.000475
0.047910 -0.770453 -0.228561
0.036079 -0.307714 0.001124
0.064564 -0.738042 -0.187260
0.070662 -0.287522 0.052962
0.070396 -0.706707 -0.162030
0.076826 -0.270371 0.075038
0.075959 -0.674428 -0.137803
0.088125 -0.249730 0.095960
0.073648 -0.644360 -0.128478
0.077380 -0.613238 -0.110426
0.076894 -0.583286 -0.097039
0.081971 -0.553571 -0.070932
0.077969 -0.529082 -0.057054
0.065045 -0.495735 -0.063961
0.060476 -0.468820 -0.058053
0.057653 -0.449919 -0.042918
0.057296 -0.419596 -0.032375
0.056307 -0.391679 -0.018048
0.054152 -0.367877 -0.007731
0.038048 -0.802130 -0.268079
0.045653 -0.333713 -0.001236
0.050588 -0.769302 -0.229480
0.038909 -0.306729 0.000466
0.067966 -0.736186 -0.182142
0.071401 -0.288303 0.048012
0.069520 -0.704109 -0.169888
0.082140 -0.269584 0.078099
0.058187 -0.673077 -0.180576
0.090682 -0.248214 0.095153
0.061057 -0.647132 -0.153699
0.068236 -0.612463 -0.124645
0.078300 -0.581627 -0.099488
0.083052 -0.552733 -0.072913
0.079153 -0.528686 -0.058827
0.065546 -0.499974 -0.063543
0.061138 -0.467302 -0.061243
-0.167401 0.097012 -0.050016
0.058105 -0.448970 -0.045870
0.058539 -0.419441 -0.034902
0.057519 -0.390524 -0.020458
0.056249 -0.366937 -0.010071
0.040635 -0.801080 -0.271719
0.046609 -0.332572 -0.004001
0.050361 -0.769513 -0.235496
0.047455 -0.310216 0.010387
0.065233 -0.735116 -0.193323
0.075194 -0.288871 0.045634
0.068904 -0.704546 -0.177462
0.086391 -0.271001 0.073477
0.061112 -0.671176 -0.172378
0.091951 -0.246677 0.093042
0.055205 -0.637842 -0.173754
0.061927 -0.610717 -0.144874
0.080043 -0.579370 -0.102620
0.082768 -0.550135 -0.083528
0.082142 -0.528539 -0.059114
0.066724 -0.498866 -0.066027
0.061858 -0.466896 -0.062377
-0.164434 0.098133 -0.051597
0.059270 -0.448360 -0.048370
0.059459 -0.419070 -0.038516
0.057804 -0.389999 -0.022596
0.057856 -0.365736 -0.012442
-0.018760 0.146006 0.104230
0.037754 -0.804371 -0.276747
0.049267 -0.331239 -0.007338
0.051312 -0.768276 -0.235932
0.065768 -0.310294 0.037803
0.065753 -0.736170 -0.197522
0.077848 -0.288256 0.044857
0.053127 -0.705046 -0.221983
0.092008 -0.262985 0.074722
0.055069 -0.672802 -0.188847
0.085964 -0.242884 0.083694
0.055466 -0.636326 -0.173336
0.062635 -0.612161 -0.157695
0.080786 -0.579739 -0.103108
0.081435 -0.551619 -0.087520
0.081466 -0.526559 -0.066319
0.069732 -0.498139 -0.066432
0.062951 -0.464396 -0.066239
-0.162975 0.095852 -0.053060
0.060476 -0.445963 -0.054840
0.060399 -0.418662 -0.039314
0.058445 -0.381265 -0.038228
0.059043 -0.365936 -0.014070
0.033946 -0.809490 -0.289873
0.050183 -0.330433 -0.008641
0.052621 -0.767715 -0.245407
0.071637 -0.307796 0.037800
0.066242 -0.735405 -0.201752
0.078512 -0.288367 0.040925
0.051613 -0.702007 -0.226605
0.095043 -0.262368 0.075138
0.054936 -0.672428 -0.190805
0.086002 -0.238214 0.080714
0.059058 -0.644326 -0.163370
0.064758 -0.609495 -0.144948
0.063311 -0.578540 -0.137802
0.082025 -0.550732 -0.094017
0.081172 -0.525158 -0.070976
0.071897 -0.496638 -0.070250
0.063810 -0.464065 -0.072454
-0.148764 0.098508 -0.045678
0.060619 -0.445149 -0.058087
0.061219 -0.415339 -0.044326
0.059990 -0.380247 -0.042194
0.058722 -0.365259 -0.019742
0.030560 -0.811587 -0.294714
0.052642 -0.329157 -0.010784
0.053694 -0.766609 -0.243620
0.062241 -0.303753 0.013864
0.067559 -0.734083 -0.207795
0.081028 -0.287301 0.041666
0.052985 -0.701451 -0.225622
0.099094 -0.264026 0.073920
0.054950 -0.672097 -0.192790
0.085813 -0.238388 0.078088
0.057881 -0.635163 -0.178908
0.064011 -0.610542 -0.155605
0.064017 -0.578784 -0.141843
0.084972 -0.550049 -0.090196
0.081211 -0.521764 -0.077788
0.073493 -0.494341 -0.076830
0.065536 -0.462198 -0.075239
-0.136841 0.093884 -0.044728
0.061877 -0.444382 -0.059438
0.062264 -0.416004 -0.049084
0.060566 -0.378237 -0.044937
0.060577 -0.363986 -0.023658
0.003737 -0.813889 -0.334149
0.055329 -0.328023 -0.015864
0.050214 -0.769687 -0.256318
0.063775 -0.299510 0.010612
0.066017 -0.733969 -0.212868
0.084874 -0.283614 0.042349
0.053400 -0.701110 -0.229272
0.101815 -0.264182 0.074466
0.055468 -0.670971 -0.197908
0.087488 -0.236440 0.077431
0.062218 -0.643473 -0.162134
0.052445 -0.192293 0.052176
0.064349 -0.609100 -0.159023
0.061732 -0.577538 -0.148816
0.079606 -0.545525 -0.121238
0.082588 -0.519873 -0.081462
0.075955 -0.492833 -0.080373
0.066500 -0.461350 -0.077624
-0.148720 0.099508 -0.047102
0.062085 -0.444543 -0.063406
0.063137 -0.413077 -0.050637
0.061412 -0.376693 -0.045010
0.062243 -0.364027 -0.026045
0.057108 -0.327616 -0.018996
0.050247 -0.774925 -0.262717
0.061341 -0.294829 0.001567
0.066488 -0.731773 -0.217750
0.082970 -0.285498 0.038213
0.054795 -0.702309 -0.218573
0.105360 -0.263422 0.073199
0.054793 -0.668277 -0.207014
0.090224 -0.236499 0.077915
0.059942 -0.639310 -0.176042
0.050311 -0.184898 0.034442
0.064849 -0.606449 -0.164193
0.062550 -0.574629 -0.151444
0.065282 -0.538741 -0.142844
0.084105 -0.519043 -0.088982
0.078911 -0.492672 -0.084371
0.068058 -0.460033 -0.081164
-0.134708 0.093522 -0.045091
0.063831 -0.442370 -0.068669
0.064122 -0.412273 -0.055696
0.063670 -0.378607 -0.047156
0.063222 -0.362481 -0.029247
0.058953 -0.326329 -0.022711
0.048914 -0.771970 -0.268264
0.054620 -0.296567 -0.016881
0.064477 -0.733213 -0.222568
0.087544 -0.282875 0.041371
0.054009 -0.701173 -0.229417
0.108881 -0.263281 0.072452
0.055170 -0.668222 -0.206116
0.102054 -0.237493 0.078130
0.060124 -0.635283 -0.189034
0.051328 -0.184029 0.034105
0.065905 -0.605650 -0.165177
0.063957 -0.575938 -0.150824
0.064740 -0.539178 -0.150505
0.084912 -0.517811 -0.092595
0.079533 -0.490677 -0.088141
0.069296 -0.459465 -0.084755
-0.134105 0.093467 -0.045586
0.065289 -0.441547 -0.071874
0.064638 -0.411427 -0.058261
0.064340 -0.376985 -0.051644
0.065107 -0.355732 -0.034565
0.036274 0.118447 0.142205
0.059601 -0.326733 -0.022441
0.048988 -0.771739 -0.273940
0.054737 -0.292760 -0.024548
0.065073 -0.733052 -0.223102
0.091332 -0.282753 0.042264
0.053325 -0.699949 -0.235127
0.108921 -0.262037 0.071417
0.054806 -0.668244 -0.207888
0.108524 -0.238507 0.078112
0.060292 -0.634457 -0.192799
0.051694 -0.183525 0.033478
0.066732 -0.604943 -0.169838
0.056445 -0.162390 0.057228
0.065736 -0.572854 -0.153283
0.065888 -0.540744 -0.148409
0.085352 -0.518295 -0.098506
0.080472 -0.489714 -0.088179
0.070551 -0.457987 -0.087781
-0.133117 0.092525 -0.046016
0.065395 -0.441685 -0.074762
0.065685 -0.410979 -0.060749
0.065326 -0.375854 -0.054047
0.066541 -0.351447 -0.041293
0.042074 0.120273 0.146864
0.063564 -0.322452 -0.029271
0.050084 -0.771248 -0.276813
0.056607 -0.290762 -0.027316
0.031316 -0.749200 -0.314627
0.083369 -0.281788 0.027213
0.054163 -0.699930 -0.241543
0.111567 -0.261184 0.069892
0.055043 -0.666120 -0.216699
0.110554 -0.234261 0.078518
0.061392 -0.634892 -0.198717
0.041131 -0.176199 0.009349
0.065522 -0.605695 -0.175827
0.051143 -0.149659 0.040888
0.067116 -0.572516 -0.153621
0.065673 -0.539345 -0.151251
0.085485 -0.517246 -0.099694
0.081828 -0.486437 -0.093040
0.072438 -0.457393 -0.091131
-0.137544 0.096233 -0.047829
0.070014 -0.433057 -0.083627
0.066510 -0.408617 -0.066772
0.066399 -0.374538 -0.059907
0.065942 -0.351330 -0.043916
0.040481 0.114564 0.138410
0.063570 -0.314676 -0.034487
0.052348 -0.767786 -0.270909
0.057982 -0.288901 -0.033667
0.059966 -0.264606 -0.011875
0.054519 -0.700832 -0.243889
0.115933 -0.259805 0.068926
0.054301 -0.666485 -0.228182
0.119470 -0.240113 0.078990
0.058338 -0.634533 -0.212185
0.043402 -0.165719 0.005798
0.066305 -0.605619 -0.176201
0.052842 -0.151822 0.042423
0.069158 -0.575203 -0.161884
0.057812 -0.128111 0.054806
0.065233 -0.541151 -0.153777
0.061070 -0.513902 -0.151315
0.083563 -0.487294 -0.093204
0.074250 -0.456499 -0.092724
-0.129185 0.089570 -0.045864
0.071514 -0.428978 -0.089224
0.067211 -0.407217 -0.072669
0.068048 -0.373334 -0.064775
0.068181 -0.349394 -0.048887
0.035923 0.128795 0.130353
0.064113 -0.312701 -0.040251
0.048075 -0.768848 -0.286691
0.056363 -0.290797 -0.033152
0.061418 -0.260973 -0.017458
0.053005 -0.701808 -0.249215
0.116642 -0.259935 0.068553
0.052483 -0.667138 -0.240154
0.122348 -0.239905 0.079003
0.058246 -0.632977 -0.211615
0.043426 -0.164379 0.003252
0.066740 -0.604145 -0.182002
0.050983 -0.150628 0.039256
0.070556 -0.574479 -0.162648
0.053028 -0.129846 0.055432
0.067614 -0.539017 -0.153672
0.060062 -0.509412 -0.162200
0.084865 -0.482345 -0.101083
0.075117 -0.455156 -0.095567
0.071673 -0.429070 -0.092820
0.069755 -0.399987 -0.065254
0.068476 -0.373211 -0.067161
0.068881 -0.347534 -0.051098
0.038689 0.125584 0.131478
0.064963 -0.310358 -0.044181
0.046990 -0.767504 -0.296925
0.059118 -0.290407 -0.031341
0.061520 -0.256948 -0.019988
0.053529 -0.698842 -0.254915
0.116211 -0.261040 0.057179
0.052827 -0.665744 -0.244775
0.122984 -0.237665 0.076843
0.058920 -0.633101 -0.214204
0.044516 -0.164473 0.000796
0.062900 -0.602957 -0.201239
0.045045 -0.142248 0.017328
0.072245 -0.573440 -0.167717
0.053998 -0.128795 0.055453
0.069517 -0.538794 -0.153323
0.060701 -0.510212 -0.160861
0.085615 -0.480286 -0.105733
0.076009 -0.454089 -0.099303
-0.124937 0.089108 -0.047718
0.073474 -0.427156 -0.098346
0.069102 -0.403767 -0.079844
0.068825 -0.371661 -0.071443
0.069640 -0.346937 -0.055192
0.035168 0.131697 0.132368
0.065163 -0.315183 -0.041474
0.021075 -0.769000 -0.341537
0.062219 -0.288453 -0.038325
0.059785 -0.252795 -0.039819
0.051728 -0.699063 -0.265005
0.116838 -0.259539 0.055797
0.053059 -0.665099 -0.245812
0.111383 -0.223893 0.058946
0.058502 -0.634008 -0.229871
0.047340 -0.164829 -0.001054
0.063075 -0.602581 -0.211451
0.043479 -0.134320 0.003942
0.072891 -0.571369 -0.168543
0.054106 -0.128689 0.053563
0.071635 -0.538501 -0.153877
0.065536 -0.509672 -0.151995
0.086758 -0.477342 -0.110237
0.078177 -0.452892 -0.103176
-0.122977 0.088073 -0.049472
0.074674 -0.425689 -0.100431
0.070725 -0.402121 -0.085056
0.069186 -0.372003 -0.073154
0.071208 -0.338747 -0.054692
0.042816 0.125124 0.129613
0.065779 -0.313301 -0.048288
0.064705 -0.282626 -0.041186
0.059462 -0.253693 -0.038810
0.052402 -0.694926 -0.269490
0.122662 -0.253962 0.057263
0.054741 -0.664451 -0.244689
0.138838 -0.238308 0.083718
0.060008 -0.632921 -0.220774
0.048684 -0.165526 -0.001204
0.063635 -0.601155 -0.214874
0.045024 -0.132734 0.002184
0.074376 -0.571302 -0.172901
0.044304 -0.108779 0.018719
0.076084 -0.536967 -0.155615
0.055838 -0.088446 0.043539
0.060942 -0.506634 -0.168427
0.083821 -0.484286 -0.118994
0.079511 -0.452160 -0.106691
-0.113744 0.086060 -0.047390
0.075778 -0.424634 -0.104157
0.071360 -0.400069 -0.088031
0.069547 -0.369725 -0.080241
0.072531 -0.336442 -0.060374
0.038808 0.129980 0.128293
0.066475 -0.312577 -0.049870
0.066585 -0.280889 -0.046164
0.061807 -0.252552 -0.039736
0.052804 -0.694997 -0.270881
0.119591 -0.254815 0.052288
0.055506 -0.664197 -0.245251
0.144914 -0.236544 0.085601
0.061122 -0.632987 -0.231979
0.051864 -0.164845 -0.006524
0.063726 -0.600936 -0.215046
0.044308 -0.139570 0.008412
0.075298 -0.570447 -0.176662
0.039902 -0.099328 0.007264
0.077780 -0.537864 -0.160581
0.059124 -0.091979 0.047972
0.065063 -0.507485 -0.162077
0.081823 -0.474626 -0.138532
0.080368 -0.449683 -0.111060
0.076772 -0.418746 -0.107919
0.074018 -0.392514 -0.088305
0.071667 -0.367119 -0.086039
0.071405 -0.336996 -0.066590
0.039087 0.132529 0.124797
0.067027 -0.309414 -0.055245
0.066915 -0.279180 -0.047457
0.063459 -0.252243 -0.039927
0.053860 -0.693552 -0.276562
0.119404 -0.255686 0.050673
0.056004 -0.663431 -0.248991
0.148884 -0.235836 0.082373
0.061022 -0.631791 -0.241140
0.054708 -0.164277 -0.009696
0.065554 -0.599842 -0.215915
0.046729 -0.139597 0.007773
0.075684 -0.569542 -0.185598
0.041067 -0.096710 0.005512
0.080150 -0.536717 -0.163493
0.053218 -0.086383 0.045748
0.066678 -0.505887 -0.165808
0.056785 -0.055128 0.046599
0.061996 -0.475385 -0.164385
0.081312 -0.448338 -0.111714
0.078622 -0.418053 -0.112653
0.074967 -0.397721 -0.096153
0.072923 -0.366913 -0.088084
0.049540 0.107121 0.100023
0.072461 -0.335209 -0.073410
0.040258 0.135548 0.122074
0.067973 -0.307440 -0.060785
0.066321 -0.280084 -0.049809
0.065458 -0.250039 -0.041391
0.055202 -0.692837 -0.281704
0.119927 -0.254528 0.048190
0.056632 -0.662633 -0.275598
0.134591 -0.231983 0.070250
0.063214 -0.631168 -0.248388
0.056015 -0.161681 -0.010905
0.067141 -0.598185 -0.219865
0.048753 -0.137725 0.003049
0.073337 -0.567810 -0.206131
0.042721 -0.095347 0.003782
0.082395 -0.535300 -0.163344
0.043943 -0.070232 0.015510
0.069768 -0.506086 -0.164464
0.053448 -0.054469 0.047619
0.051538 -0.470763 -0.197251
0.082887 -0.446582 -0.115664
0.078741 -0.417012 -0.116122
0.075210 -0.390703 -0.098630
0.073763 -0.367440 -0.088421
0.073421 -0.333985 -0.076596
0.041035 0.137710 0.117594
0.070030 -0.304179 -0.066303
0.067875 -0.278245 -0.055685
0.068092 -0.247747 -0.045481
0.055102 -0.691682 -0.281679
0.066060 -0.216985 -0.033167
0.057984 -0.661912 -0.263987
0.134329 -0.230615 0.065429
0.064707 -0.630775 -0.249159
0.057637 -0.160751 -0.012097
0.068735 -0.596678 -0.221669
0.051893 -0.135111 -0.000910
0.073953 -0.565904 -0.212063
0.044670 -0.094254 -0.001753
0.082704 -0.537685 -0.162460
0.044557 -0.068594 0.011823
0.072712 -0.505476 -0.164932
0.054542 -0.054665 0.045552
0.052271 -0.467910 -0.200750
0.059928 -0.038748 0.051490
0.082654 -0.448178 -0.128395
0.058253 0.008867 0.064325
0.080725 -0.414309 -0.121197
0.075738 -0.388355 -0.105059
0.075239 -0.361675 -0.100318
0.050635 0.110961 0.092114
0.073985 -0.333507 -0.079171
0.041749 0.146350 0.106611
0.070474 -0.302164 -0.072723
0.068921 -0.276900 -0.058629
0.068509 -0.247401 -0.050632
0.055270 -0.695396 -0.295043
0.065755 -0.217640 -0.035782
0.058212 -0.661113 -0.277353
0.135005 -0.230495 0.064403
0.064615 -0.630319 -0.245503
0.059699 -0.159850 -0.014500
0.070495 -0.595809 -0.229262
0.055717 -0.132432 -0.006561
0.081067 -0.564153 -0.183207
0.047016 -0.095133 0.000510
0.084304 -0.539702 -0.171707
0.046179 -0.064818 0.007216
0.075940 -0.504709 -0.166044
0.055449 -0.053962 0.045061
0.054468 -0.463352 -0.201465
0.054325 -0.013381 0.049969
0.082329 -0.448128 -0.130067
0.055877 0.015505 0.058264
0.081060 -0.414198 -0.122322
0.075343 -0.387854 -0.105988
0.076223 -0.359753 -0.104107
0.052918 0.105658 0.096239
0.074714 -0.332507 -0.082608
0.042765 0.147075 0.106119
0.070853 -0.301138 -0.077414
0.069912 -0.275966 -0.061822
0.069974 -0.246261 -0.053146
0.055594 -0.693682 -0.301829
0.067385 -0.218250 -0.038232
0.058757 -0.657501 -0.290366
0.132651 -0.228985 0.058768
0.068936 -0.622898 -0.231948
0.061998 -0.158070 -0.018459
0.072271 -0.597069 -0.234362
0.058596 -0.128939 -0.011645
0.076775 -0.566309 -0.209857
0.052708 -0.092062 -0.003768
0.086122 -0.539996 -0.176814
0.048125 -0.062737 0.006458
0.078340 -0.503860 -0.167611
0.046068 -0.037144 0.018781
0.055876 -0.467696 -0.199919
0.050017 -0.012915 0.041734
0.083581 -0.446371 -0.132151
0.055480 0.016861 0.056618
0.079719 -0.413339 -0.131423
0.075418 -0.388019 -0.109302
0.076073 -0.355812 -0.104606
0.075490 -0.330847 -0.086288
0.044078 0.144810 0.105792
0.072100 -0.300602 -0.079301
0.070661 -0.275158 -0.067202
0.069886 -0.245597 -0.055297
0.056682 -0.688107 -0.299898
0.069835 -0.216841 -0.044067
0.060166 -0.657405 -0.299937
0.136053 -0.227852 0.061008
0.067502 -0.629703 -0.253213
0.063031 -0.156559 -0.021496
0.071998 -0.596856 -0.238988
0.059887 -0.128459 -0.012972
0.075650 -0.561870 -0.228219
0.054574 -0.090784 -0.005107
0.088921 -0.538252 -0.170808
0.050162 -0.064663 0.006298
0.080775 -0.502782 -0.168433
0.040910 -0.026079 0.009354
0.058283 -0.462816 -0.204380
0.049177 -0.014480 0.036761
0.083786 -0.445780 -0.139170
0.050864 0.025261 0.045326
0.081062 -0.412090 -0.135504
0.076802 -0.385709 -0.118555
0.075554 -0.354346 -0.108246
0.075893 -0.328882 -0.092541
0.045687 0.141797 0.105180
0.073226 -0.295163 -0.087059
0.071156 -0.273448 -0.072463
0.070541 -0.246457 -0.062354
0.058875 -0.688182 -0.310661
0.071193 -0.215955 -0.047576
0.061218 -0.656038 -0.302487
0.069820 -0.187364 -0.036689
0.068319 -0.627294 -0.251372
0.064700 -0.152283 -0.026935
0.072409 -0.596741 -0.244585
0.061466 -0.126303 -0.017597
0.076945 -0.559611 -0.231967
0.057867 -0.088262 -0.010155
0.090475 -0.537776 -0.177940
0.053828 -0.060473 0.003878
0.085135 -0.500331 -0.177797
0.041952 -0.024015 0.006383
0.059876 -0.466849 -0.202202
0.038814 0.011661 0.010755
0.084977 -0.444338 -0.143851
0.055805 0.017945 0.053601
0.081062 -0.411158 -0.139240
0.077483 -0.380722 -0.123225
0.077026 -0.353181 -0.112379
0.076227 -0.327836 -0.099031
0.044133 0.155898 0.093353
0.073918 -0.293547 -0.090213
0.071811 -0.273197 -0.074915
0.070893 -0.244938 -0.066871
0.059114 -0.688206 -0.311355
0.072727 -0.213109 -0.052129
0.062989 -0.655688 -0.295797
0.070910 -0.186907 -0.041754
0.068605 -0.624825 -0.261460
0.065848 -0.152294 -0.028091
0.073801 -0.593465 -0.246498
0.062146 -0.125375 -0.018722
0.078230 -0.559713 -0.229360
0.060209 -0.086242 -0.014275
0.090908 -0.538133 -0.184110
0.057675 -0.050629 -0.004230
0.087644 -0.499459 -0.180479
0.045697 -0.022390 0.004498
0.061724 -0.465897 -0.204123
0.039602 0.012934 0.009639
0.086260 -0.442103 -0.153464
0.054901 0.019718 0.050132
0.081689 -0.410017 -0.143846
0.078142 -0.384286 -0.128784
0.076924 -0.351363 -0.114409
0.078243 -0.326808 -0.102629
0.047344 0.156294 0.093055
0.073453 -0.291084 -0.094559
0.072343 -0.270404 -0.077515
0.071333 -0.240211 -0.071861
0.060543 -0.688131 -0.315201
0.074145 -0.210718 -0.057642
0.063766 -0.658064 -0.283256
0.071243 -0.184260 -0.046725
0.070305 -0.624089 -0.266419
0.066578 -0.152318 -0.030499
0.074687 -0.592917 -0.248049
0.063862 -0.123203 -0.022632
0.079092 -0.557385 -0.235220
0.063016 -0.083589 -0.016325
0.090498 -0.534408 -0.197786
0.060975 -0.052467 -0.005019
0.089672 -0.498795 -0.181326
0.049114 -0.022761 0.003179
0.062415 -0.464571 -0.205584
0.043353 0.010622 0.008709
0.074579 -0.438301 -0.179418
0.049790 0.027538 0.036824
0.082660 -0.408506 -0.147163
0.078606 -0.378947 -0.131715
0.054431 0.092660 0.064828
0.078038 -0.348863 -0.121473
0.078515 -0.324273 -0.109359
0.047751 0.157124 0.089535
0.074614 -0.290820 -0.097661
0.073193 -0.268255 -0.082831
0.072129 -0.238991 -0.074434
0.063163 -0.686762 -0.318626
0.075783 -0.205685 -0.064091
0.067725 -0.654182 -0.298480
0.072088 -0.180235 -0.050168
0.070929 -0.623482 -0.268183
0.069380 -0.151500 -0.035887
0.076099 -0.592084 -0.256052
0.065829 -0.120267 -0.025580
0.080154 -0.556292 -0.239939
0.063519 -0.087840 -0.020317
0.089412 -0.529733 -0.207398
0.062184 -0.051578 -0.006575
0.091935 -0.498251 -0.184287
0.057040 -0.026740 0.002375
0.064457 -0.461449 -0.207660
0.046504 0.011179 0.007184
-0.025816 -0.416893 -0.329352
0.041502 0.040640 0.014497
0.084602 -0.407029 -0.154719
0.078645 -0.378494 -0.140239
0.051033 0.099720 0.055118
0.079327 -0.346549 -0.128354
0.079493 -0.324255 -0.111203
0.047179 0.163700 0.085135
0.075856 -0.288156 -0.102698
0.074123 -0.267122 -0.085883
0.073422 -0.236699 -0.080035
0.061868 -0.685972 -0.329907
0.076478 -0.203526 -0.068283
0.067312 -0.654671 -0.301421
0.073370 -0.178005 -0.056539
0.071969 -0.621254 -0.274583
0.071140 -0.150137 -0.041800
0.077327 -0.588620 -0.251982
0.068368 -0.114453 -0.029059
0.080477 -0.555833 -0.245395
0.065071 -0.086253 -0.024053
0.088984 -0.530063 -0.214122
0.062818 -0.051944 -0.008504
0.093056 -0.497661 -0.185005
0.057737 -0.025253 -0.000776
0.066199 -0.460967 -0.209481
0.049393 0.010067 0.006262
-0.035177 -0.411671 -0.346736
0.037856 0.048521 0.010997
0.084857 -0.405283 -0.159691
0.056611 0.053998 0.052002
0.079030 -0.371687 -0.153667
0.049007 0.102313 0.049517
0.079306 -0.346637 -0.132790
0.079192 -0.315224 -0.116777
0.045108 0.165275 0.075608
0.075708 -0.287407 -0.107359
0.075161 -0.262635 -0.090858
0.074263 -0.234170 -0.085031
0.061321 -0.685054 -0.333129
0.076463 -0.204649 -0.067532
0.069405 -0.652655 -0.309072
0.076314 -0.168704 -0.057169
0.072141 -0.621696 -0.282611
0.071909 -0.150507 -0.044279
0.076513 -0.590360 -0.265088
0.069698 -0.119234 -0.032163
0.082304 -0.554652 -0.242272
0.068490 -0.080957 -0.026231
0.089860 -0.524396 -0.217695
0.064132 -0.051350 -0.010101
0.091925 -0.500944 -0.181932
0.060227 -0.024255 -0.004633
0.069121 -0.459691 -0.211237
0.052152 0.008256 0.006210
-0.031238 -0.412803 -0.345541
0.039446 0.051746 0.006316
0.085338 -0.404604 -0.161074
0.050403 0.070736 0.034235
0.077243 -0.371471 -0.161609
0.051236 0.100498 0.052622
0.080126 -0.344169 -0.137056
0.078774 -0.313574 -0.121803
0.047042 0.165089 0.075082
0.076335 -0.286197 -0.111513
0.075825 -0.261365 -0.096576
0.075467 -0.233282 -0.086048
0.062966 -0.683546 -0.338985
0.077030 -0.203451 -0.070852
0.067199 -0.650017 -0.330279
0.076493 -0.166572 -0.064020
0.073383 -0.618053 -0.291319
0.071247 -0.147225 -0.042666
0.077253 -0.584264 -0.277387
0.071614 -0.117765 -0.036601
0.083849 -0.554556 -0.242249
0.069921 -0.078436 -0.032630
0.090252 -0.523281 -0.219525
0.067323 -0.050552 -0.013742
0.098434 -0.493839 -0.192514
0.060849 -0.020377 -0.007112
0.072413 -0.458564 -0.212665
0.053693 0.010577 0.003384
-0.034101 -0.410273 -0.349296
0.041915 0.052054 0.005195
0.083947 -0.403479 -0.166883
0.042706 0.081745 0.016412
0.077975 -0.369945 -0.165393
0.055397 0.097728 0.052544
0.081613 -0.343654 -0.141886
0.081211 -0.316693 -0.126727
0.052148 0.157876 0.083950
0.077122 -0.283586 -0.117228
0.078214 -0.252638 -0.107270
0.077440 -0.225973 -0.092420
0.063549 -0.683550 -0.339638
0.077556 -0.200604 -0.076615
0.067297 -0.650112 -0.331689
0.077373 -0.165639 -0.067304
0.074120 -0.618545 -0.297648
0.073244 -0.142517 -0.051030
0.076308 -0.584697 -0.285399
0.073164 -0.111451 -0.041748
0.084948 -0.554095 -0.247061
0.071664 -0.076031 -0.038625
0.090731 -0.525249 -0.227643
0.068799 -0.048898 -0.018697
0.098167 -0.496838 -0.196044
0.060339 -0.018960 -0.012053
0.075345 -0.457795 -0.213708
0.054107 0.018431 0.000782
-0.031074 -0.407752 -0.352361
0.046638 0.052200 0.004088
0.083175 -0.403675 -0.176069
0.043975 0.084950 0.014479
0.077862 -0.369665 -0.173928
0.049026 0.114863 0.030914
0.081744 -0.341545 -0.148524
0.082282 -0.315482 -0.131126
0.077725 -0.280909 -0.121474
0.079049 -0.251112 -0.109474
0.077898 -0.221789 -0.097338
0.063583 -0.684503 -0.349143
0.078453 -0.197167 -0.084541
0.070412 -0.646927 -0.330013
0.077839 -0.163269 -0.071306
0.073030 -0.617971 -0.307445
0.073209 -0.141961 -0.052895
0.077917 -0.583490 -0.286232
0.073506 -0.112265 -0.042749
0.086332 -0.552766 -0.249729
0.072781 -0.076459 -0.038586
0.092196 -0.525031 -0.227033
0.070680 -0.049440 -0.020189
0.099576 -0.495104 -0.200413
0.063915 -0.020594 -0.016139
0.078467 -0.457195 -0.213968
0.057527 0.016495 -0.003065
-0.034847 -0.406723 -0.354260
0.052317 0.051185 0.001942
0.083702 -0.400711 -0.184133
0.047155 0.086183 0.010839
0.078380 -0.367829 -0.175963
0.037688 0.132090 0.013902
0.081418 -0.339466 -0.153535
0.082503 -0.308515 -0.136891
0.078156 -0.280260 -0.126173
0.079217 -0.248871 -0.116249
0.078399 -0.220387 -0.102496
0.065127 -0.683118 -0.355107
0.079748 -0.194907 -0.088499
0.069922 -0.648430 -0.337112
0.078975 -0.161675 -0.076144
0.074569 -0.616026 -0.305329
0.074213 -0.140248 -0.058997
0.077034 -0.582915 -0.296186
0.074376 -0.107410 -0.049944
0.088431 -0.550701 -0.259144
0.072730 -0.074694 -0.038572
0.093548 -0.521778 -0.233374
0.073415 -0.044273 -0.029209
0.102125 -0.493083 -0.204702
0.064418 -0.010669 -0.017304
0.078925 -0.456911 -0.221848
0.058100 0.021370 -0.006259
-0.035042 -0.406926 -0.355844
0.056025 0.050709 0.002824
0.083998 -0.398709 -0.186639
0.050480 0.085528 0.010919
0.078775 -0.364577 -0.184401
0.038852 0.133292 0.012006
0.082709 -0.337628 -0.157043
0.082989 -0.306798 -0.142203
0.045297 0.186490 0.053561
0.078836 -0.279603 -0.128581
0.080073 -0.247006 -0.118680
0.079442 -0.217874 -0.108143
0.066372 -0.682164 -0.360048
0.081290 -0.189368 -0.087828
0.071525 -0.646310 -0.342796
0.078938 -0.160105 -0.079068
0.073517 -0.615881 -0.309734
0.075468 -0.136760 -0.063542
0.078896 -0.581056 -0.288605
0.074891 -0.105844 -0.054177
0.089733 -0.550231 -0.264107
0.073347 -0.073588 -0.044299
0.095747 -0.520421 -0.230861
0.073981 -0.045768 -0.028296
0.104021 -0.491439 -0.210065
0.067008 -0.009850 -0.019014
0.082932 -0.456175 -0.222667
0.061573 0.018483 -0.007539
-0.029293 -0.402139 -0.359050
0.056879 0.051593 0.000358
0.085043 -0.396001 -0.190186
0.052743 0.086410 0.008655
0.079524 -0.364806 -0.183491
0.040790 0.134439 0.010398
0.083298 -0.336264 -0.165011
0.043110 0.157078 0.029974
0.084455 -0.308263 -0.148423
0.048144 0.177587 0.057529
0.080996 -0.277041 -0.135548
0.080169 -0.245516 -0.126832
0.079847 -0.216444 -0.114053
0.064790 -0.678236 -0.374549
0.081478 -0.188119 -0.093190
0.073277 -0.647566 -0.340337
0.078522 -0.158793 -0.087010
0.075249 -0.615149 -0.316227
0.075588 -0.135142 -0.069656
0.078193 -0.581129 -0.307037
0.075236 -0.104782 -0.056643
0.090020 -0.550968 -0.271722
0.073147 -0.071152 -0.046917
0.073262 -0.518904 -0.311948
0.075429 -0.044720 -0.031838
0.105595 -0.490110 -0.209703
0.069282 -0.006833 -0.023408
0.087556 -0.455544 -0.222918
0.064294 0.021000 -0.013787
-0.022412 -0.403964 -0.354412
0.057759 0.052157 -0.001354
0.085792 -0.389251 -0.196808
0.058132 0.083018 0.007421
0.080110 -0.364314 -0.186887
0.046383 0.129594 0.012752
0.083094 -0.335355 -0.169472
0.047772 0.154697 0.029843
0.085080 -0.305551 -0.152489
0.047253 0.180458 0.052403
0.081758 -0.274796 -0.140508
0.080899 -0.244355 -0.132796
0.081562 -0.214719 -0.119160
0.081362 -0.186712 -0.098595
0.073874 -0.646599 -0.348993
0.078618 -0.157584 -0.088038
0.077492 -0.612406 -0.320266
0.076620 -0.131081 -0.075727
0.079707 -0.580908 -0.318736
0.076702 -0.102192 -0.062269
0.089737 -0.548950 -0.280313
0.074215 -0.070688 -0.053362
0.094126 -0.512148 -0.267756
0.076017 -0.045905 -0.032390
0.105216 -0.489003 -0.219421
0.071324 -0.007351 -0.024739
0.090042 -0.453049 -0.230444
0.066709 0.020851 -0.013956
-0.014452 -0.405381 -0.358295
0.059143 0.055221 -0.007777
0.087340 -0.387552 -0.198812
0.057558 0.087420 0.006122
0.080788 -0.361784 -0.195686
0.049675 0.130341 0.011623
0.083132 -0.334178 -0.172278
0.048025 0.163705 0.021276
0.085577 -0.302944 -0.159329
0.040265 0.197768 0.027704
0.083478 -0.273880 -0.144005
0.082072 -0.243329 -0.134876
0.081861 -0.213495 -0.126867
0.081802 -0.184031 -0.103019
0.075716 -0.644124 -0.349080
0.079752 -0.148623 -0.097500
0.077881 -0.612987 -0.324584
0.077694 -0.129270 -0.080990
0.079897 -0.579933 -0.314477
0.077955 -0.100688 -0.066145
0.091781 -0.547043 -0.284501
0.074837 -0.068883 -0.053445
0.096162 -0.513517 -0.256416
0.077259 -0.043489 -0.038089
0.105846 -0.488117 -0.222711
0.073263 -0.004732 -0.027991
0.091976 -0.447768 -0.231756
0.066481 0.029456 -0.025239
-0.005461 -0.407974 -0.353541
0.062129 0.053610 -0.009399
0.080573 -0.391271 -0.217759
0.059438 0.088160 0.004496
0.081409 -0.361143 -0.202271
0.054673 0.130227 0.010720
0.082863 -0.333101 -0.179088
0.050382 0.164000 0.019470
0.086551 -0.301809 -0.165831
0.035556 0.207501 0.021247
0.084837 -0.274261 -0.153773
0.082945 -0.241313 -0.139189
0.081808 -0.207460 -0.133354
0.081798 -0.182180 -0.105685
0.078158 -0.643928 -0.342908
0.080892 -0.148462 -0.099859
0.078232 -0.611306 -0.320148
0.077701 -0.126787 -0.084637
0.082075 -0.579389 -0.320853
0.076697 -0.098091 -0.070180
0.093876 -0.544707 -0.282115
0.074753 -0.066525 -0.057409
0.096894 -0.513774 -0.256532
0.077074 -0.036403 -0.045339
0.107145 -0.487303 -0.224865
0.073268 -0.000949 -0.035907
0.094242 -0.446911 -0.233859
0.063221 0.040499 -0.035739
0.003745 -0.409776 -0.347300
0.063476 0.057840 -0.013524
0.080990 -0.389004 -0.221909
0.062456 0.090995 0.000579
0.081207 -0.361642 -0.205471
0.056041 0.132281 0.007990
0.083450 -0.332872 -0.181395
0.051714 0.166716 0.016751
0.090159 -0.304003 -0.158256
0.037447 0.209602 0.019545
0.087460 -0.272272 -0.159386
0.084699 -0.240000 -0.146148
0.084297 -0.200949 -0.146263
0.083032 -0.180374 -0.112354
0.077861 -0.642753 -0.363799
0.081409 -0.153069 -0.104181
0.080745 -0.610921 -0.333342
0.078669 -0.124281 -0.088639
0.083605 -0.578139 -0.325143
0.077462 -0.094735 -0.077696
0.094205 -0.544129 -0.284618
0.077890 -0.057198 -0.062586
0.099455 -0.509856 -0.270547
0.077801 -0.035673 -0.048435
0.108838 -0.483577 -0.233751
0.074913 0.005683 -0.045837
0.097156 -0.449852 -0.239324
0.065895 0.040630 -0.037419
0.034901 -0.405230 -0.325315
0.065631 0.055769 -0.015836
0.081579 -0.386522 -0.229431
0.067785 0.091051 -0.008177
0.081857 -0.361886 -0.205822
0.056883 0.147228 -0.007879
0.081367 -0.330385 -0.193144
0.052600 0.169040 0.014999
0.094102 -0.308890 -0.146710
0.041105 0.211916 0.017234
0.087958 -0.270734 -0.166939
0.086959 -0.236715 -0.154057
0.085619 -0.199013 -0.149707
0.083916 -0.178803 -0.120962
0.079256 -0.639704 -0.353140
0.082260 -0.146242 -0.108941
0.081543 -0.611710 -0.349932
0.079780 -0.124172 -0.094020
0.085623 -0.577688 -0.329033
0.079126 -0.087628 -0.081772
0.094846 -0.543544 -0.287834
0.078123 -0.056416 -0.067525
0.098224 -0.513821 -0.267757
0.078550 -0.030808 -0.055902
0.110073 -0.483676 -0.237896
0.076807 -0.001859 -0.037617
0.100476 -0.449821 -0.243178
0.070476 0.035186 -0.032989
0.038014 -0.403409 -0.326241
0.068674 0.059365 -0.018131
0.081299 -0.384313 -0.236398
0.067894 0.092287 -0.011201
0.081340 -0.353024 -0.217921
0.060546 0.145325 -0.006780
0.080703 -0.326182 -0.200960
0.056018 0.169433 0.012396
0.096005 -0.306887 -0.151524
0.046386 0.209311 0.016913
0.089148 -0.274170 -0.156985
0.086794 -0.235980 -0.163913
0.087187 -0.198998 -0.153084
0.084513 -0.176489 -0.125723
0.078842 -0.642418 -0.371393
0.082517 -0.144715 -0.113464
0.083573 -0.609743 -0.358555
0.080868 -0.119439 -0.098171
0.087157 -0.577183 -0.328993
0.080512 -0.087483 -0.082333
0.095104 -0.541659 -0.300240
0.078560 -0.051769 -0.076499
0.100016 -0.512200 -0.270061
0.079743 -0.023467 -0.057563
0.109859 -0.482985 -0.245121
0.077767 0.002444 -0.046376
