-0.204561 0.282423 0.530424
0.576614 0.015038 -0.216376
-0.180794 -0.454513 0.605398
-0.672495 0.304901 0.504027
0.721420 -0.869131 0.050627
-0.309875 -0.430452 0.520015
0.659171 -0.199634 -0.581271
0.202180 0.461303 0.024097
0.418637 0.245390 -0.089790
0.287968 -0.726698 0.779175
-0.787573 0.301227 0.390153
0.008928 -0.618109 0.747766
0.413688 -0.107590 0.255663
0.060005 -0.443722 0.652096
0.679344 -0.734026 0.154786
-0.239078 0.065289 0.483929
0.639812 -0.198996 -0.529859
0.030531 0.761518 -0.051058
-0.482208 -0.017790 0.593349
0.063396 0.838276 -0.188640
-0.704109 0.026285 0.510405
-0.505630 0.514779 0.517955
0.027826 -0.363105 0.603353
0.256453 -0.291463 0.538688
0.552947 -0.971310 -0.321597
0.249694 -0.467004 0.640929
0.414005 -0.076551 0.217109
0.708136 -0.824846 0.279671
0.406924 -0.033413 0.008052
0.114540 -0.368954 0.609999
-0.240561 0.245881 0.573399
-0.194172 -0.334386 0.531094
0.476258 -0.324515 -0.133261
-0.429002 -0.613864 0.514379
0.502124 -0.250556 0.128741
0.460536 0.061991 -0.105513
0.640606 0.189539 -0.280759
0.718121 0.330450 -0.563416
-0.095172 -0.619707 0.719863
0.364263 -0.729396 0.734383
0.123513 0.674715 -0.191855
0.456506 -0.346423 -0.188493
0.410622 0.308217 -0.157482
-0.115041 -0.108484 0.431056
0.354276 0.138080 0.044724
0.582974 0.160085 -0.222992
-0.212791 -0.289366 0.495977
-0.409804 -0.530097 0.493408
0.699144 -0.906312 -0.038360
0.043028 0.586361 0.069592
0.406410 -0.522465 0.585074
0.075155 -0.712057 0.799332
-0.129481 0.046879 0.391758
0.557467 -0.578787 0.452051
0.132435 -0.591135 0.740956
-0.036201 0.562128 0.086727
0.791318 0.142490 -0.484978
0.727521 -0.041184 -0.382113
0.665521 -0.939747 -0.128920
0.733505 0.025464 -0.352236
-0.709570 0.033724 0.506960
-0.118659 0.238484 0.441946
0.112408 0.620604 0.002694
0.467468 -0.294003 -0.115827
-0.709990 0.031111 0.507900
-0.095084 -0.717526 0.774810
0.513965 -0.752184 -0.298211
-0.081034 0.317957 0.381496
-0.104016 0.460515 0.160960
-0.201236 -0.737446 0.761389
-0.105690 0.509147 0.096925
0.013526 -0.702177 0.792614
0.602752 -0.203247 -0.515032
-0.649705 -0.017617 0.562693
0.118241 0.662615 -0.073859
-0.555312 0.194529 0.648893
-0.100755 -0.407979 0.608589
-0.136146 -0.178588 0.462568
0.581251 -0.490871 0.059032
0.280556 0.098484 0.264463
0.454258 -0.152658 0.025269
-0.546346 0.011042 0.629205
0.669149 -0.142292 -0.611130
0.582921 -0.541897 -0.022409
-0.411434 0.178485 0.706359
0.728894 0.075133 -0.328253
0.187721 -0.680171 0.778789
0.577555 -0.913047 -0.282627
-0.634322 0.298575 0.552164
0.649809 0.219608 -0.301299
0.746450 0.264205 -0.531846
-0.034936 -0.603451 0.727430
-0.065760 -0.187957 0.487595
-0.108486 0.064274 0.389327
0.594965 -0.765218 -0.186029
0.057030 0.839596 -0.157272
0.143736 0.000208 0.410917
0.664489 -0.867673 -0.105388
-0.566176 0.338928 0.629607
0.707693 -0.833085 0.279409
0.467996 -0.544885 0.552488
0.532200 0.354499 -0.388260
0.435504 -0.462752 0.528734
0.267122 0.370365 -0.078572
0.014617 -0.501225 0.685313
-0.111739 0.511238 0.093895
0.650869 -0.046044 -0.641546
-0.017884 -0.358716 0.597971
0.263010 -0.529251 0.669862
0.620077 -0.554333 0.128148
-0.482924 -0.756954 0.563603
-0.470561 -0.001225 0.602788
0.493278 -0.187075 -0.384643
0.004246 0.154054 0.347375
-0.401749 -0.265189 0.299388
-0.508768 0.461778 0.634422
-0.152247 -0.010066 0.386876
0.565347 -0.516164 -0.062075
-0.200854 0.227228 0.533869
0.276395 -0.434518 0.613258
-0.054064 0.850170 -0.083968
0.110003 0.700551 -0.166682
0.438954 -0.129107 0.219188
-0.161480 0.442466 0.314155
0.507402 -0.331495 0.280194
-0.145968 -0.340944 0.554505
-0.096496 0.403315 0.300865
0.551170 -0.186856 -0.717766
0.283718 0.282852 0.094105
0.524134 0.346857 -0.360188
-0.233737 0.445564 0.415500
-0.556816 0.338178 0.640218
-0.105864 -0.236578 0.506679
-0.051346 0.475475 0.150222
0.647495 -0.922403 -0.171702
-0.773767 0.327495 0.402186
0.603404 0.209797 -0.245370
0.279603 0.341464 -0.027936
0.613912 -0.894803 -0.228775
0.519671 -0.304759 0.078636
-0.218419 -0.521430 0.628678
-0.602867 0.218839 0.585326
-0.045544 -0.483818 0.654333
-0.332702 -0.329334 0.427568
0.734926 0.149870 -0.561888
0.717101 -0.841835 0.184344
0.656842 -0.661915 0.291434
0.630273 -0.572876 0.184916
-0.585402 0.160419 0.611698
-0.093405 0.541686 0.080399
0.676643 -0.149779 -0.610462
0.570243 -0.468922 0.307662
0.522720 -0.395148 0.344689
-0.012639 -0.522778 0.688281
0.482344 0.346255 -0.302553
0.167457 0.293979 0.217286
0.300487 0.101516 0.237483
0.331403 0.146246 0.156476
0.653118 0.184604 -0.659671
0.431563 0.273587 -0.132490
0.185577 -0.104171 0.452938
0.448611 -0.598444 -0.311532
0.792714 0.010976 -0.409476
-0.284357 0.316294 0.587699
0.373500 -0.382681 -0.304641
0.525918 -0.393501 0.337651
0.412096 -0.144960 -0.177668
0.533121 -0.768146 0.628407
-0.117622 0.396737 0.344060
-0.317075 -0.759268 0.707036
0.272834 0.335890 0.037358
0.359596 -0.317353 0.486452
0.200337 -0.526516 0.696678
-0.147543 -0.124478 0.429919
-0.409538 0.021676 0.575713
0.754887 0.217994 -0.405355
0.202234 -0.189196 0.491111
-0.035556 -0.577765 0.715196
0.601077 -0.809939 0.552036
-0.508123 0.345581 0.673748
0.608592 -0.693963 -0.111401
0.562372 -0.588116 0.454998
0.428850 -0.542639 -0.312458
-0.037312 0.436532 0.186102
-0.326379 0.210530 0.637347
0.443693 0.321943 -0.215170
0.549278 -0.428380 0.303954
-0.115687 -0.345754 0.570200
-0.587481 0.000608 0.614817
0.644114 0.096544 -0.653061
-0.424390 -0.701566 0.571129
0.271580 0.013380 0.335299
0.517661 -0.118516 -0.279136
0.647257 -0.639832 0.092877
0.504693 -0.345119 -0.068011
-0.050094 -0.617658 0.732452
-0.008648 0.783939 -0.048713
0.676243 0.311738 -0.439866
-0.149874 -0.015101 0.381729
0.184915 -0.464877 0.657482
-0.122739 0.290655 0.431176
0.447177 -0.112538 0.126519
0.053382 0.169764 0.325676
0.715882 -0.850202 0.054288
0.071507 0.511650 0.107821
0.611723 -0.661063 -0.063947
-0.503085 0.512559 0.527358
0.610127 -0.631065 -0.029541
0.013119 -0.131606 0.475226
0.396604 0.015869 -0.006632
0.553975 -0.195845 -0.714774
0.347662 0.173178 0.021140
-0.595670 0.175222 0.596676
0.522797 -0.415764 0.370697
0.392123 0.341917 -0.202682
-0.365848 0.233573 0.676572
0.360688 0.120128 0.048414
0.644351 -0.195923 -0.508895
0.649118 -0.618873 0.191600
-0.007434 -0.370123 0.606052
-0.687490 -0.010665 0.530186
-0.668598 0.331708 0.501441
0.591611 -0.635810 0.447211
-0.506488 0.109774 0.709386
-0.066813 0.667947 0.012457
-0.508337 0.348607 0.683839
-0.542602 0.509605 0.543452
-0.125012 0.402683 0.346644
0.714299 -0.845889 0.260291
0.583521 -0.586051 -0.086740
0.787195 0.037018 -0.484100
0.575599 -0.518524 0.345730
-0.185999 -0.059130 0.382721
-0.248754 -0.569132 0.642742
0.073033 -0.261051 0.540437
-0.420582 0.449316 0.617042
0.715348 0.002517 -0.345211
0.020570 0.397441 0.199414
0.133894 0.309740 0.227165
0.332435 -0.639072 0.706843
0.030750 0.900910 -0.184732
-0.466307 -0.591935 0.455417
0.649260 -0.742578 -0.041476
0.564744 -0.512102 -0.061936
-0.434297 -0.283363 0.262369
-0.564357 0.004749 0.621161
-0.332627 -0.106420 0.325442
-0.783553 0.170845 0.403539
0.203317 -0.722575 0.798136
0.402932 -0.195471 0.360063
0.141458 -0.425753 0.637753
-0.295200 0.297329 0.606420
0.623282 0.157478 -0.251161
0.242713 -0.614127 0.731994
0.464328 -0.224619 0.284531
0.074707 -0.333886 0.589235
0.272524 0.341107 0.032983
0.217417 -0.493503 0.671846
0.273520 0.380215 -0.137555
0.426272 -0.613716 0.627156
0.616075 0.004334 -0.261660
0.581457 -0.119593 -0.333964
0.279303 -0.661982 0.749056
0.409937 -0.036942 -0.040854
0.023428 -0.715824 0.799567
0.569643 -0.635674 0.480899
-0.618178 0.032610 0.589877
-0.400567 -0.243119 0.278018
0.482357 -0.144244 -0.300114
0.247428 0.418470 -0.031821
0.244991 0.265428 0.168217
-0.421813 -0.590080 0.507132
0.160139 0.556054 -0.182544
0.619298 -0.723311 0.464446
-0.341873 -0.124232 0.312672
0.675918 0.223078 -0.631101
-0.247664 -0.166996 0.404626
0.516363 -0.347652 0.275940
-0.426604 0.332443 0.710325
0.698275 -0.790977 0.188435
0.153516 0.446766 0.096918
-0.337731 -0.661832 0.635316
0.628301 -0.591152 0.092256
0.644965 0.338850 -0.458021
-0.627382 0.037424 0.587049
-0.099410 0.442136 0.232229
-0.195774 -0.602988 0.683373
-0.676289 0.181226 0.519623
-0.182100 -0.337309 0.538462
0.535231 -0.402723 -0.034191
0.596639 -0.657501 -0.112743
-0.179347 -0.435651 0.591415
0.323968 -0.752018 0.775334
-0.111416 -0.754418 0.783567
-0.127810 0.145202 0.444753
0.024746 0.008354 0.405414
0.230840 0.132757 0.272299
0.436534 -0.113764 0.009510
0.041587 -0.077545 0.459378
-0.549841 0.281785 0.650551
0.338942 0.085910 0.184859
0.708094 0.242061 -0.581029
0.560040 0.194229 -0.741805
0.266948 -0.303020 0.543260
0.497922 -0.242719 0.121562
0.081680 -0.254844 0.535257
-0.333061 -0.446781 0.514691
-0.131086 -0.537564 0.667757
0.553485 -0.690056 -0.208953
0.720983 -0.846608 0.088376
-0.405116 -0.654119 0.561966
-0.656676 0.451339 0.490324
0.624006 -0.665983 -0.013047
-0.262547 0.205354 0.583421
0.714782 0.252831 -0.398360
0.638545 -0.045186 -0.302978
0.318711 0.291849 -0.041584
0.047746 0.356908 0.221900
0.022159 -0.739281 0.806722
0.681051 -0.907653 -0.083854
-0.673428 0.188342 0.521049
0.413877 -0.191822 0.343787
0.662149 -0.093910 -0.633314
-0.008978 -0.145431 0.476399
0.636438 -0.633207 0.065061
0.532402 -0.658897 -0.231258
-0.144128 0.288360 0.452830
0.530080 -0.484368 -0.128821
-0.597433 0.162545 0.595013
0.083796 0.763711 -0.141992
0.022080 -0.243898 0.528321
0.764149 -0.065006 -0.470306
0.157403 0.064233 0.354842
-0.263611 -0.337011 0.494489
0.313940 0.138532 0.197564
0.657143 -0.937927 -0.146403
0.642824 -0.130453 -0.376912
-0.210151 0.403911 0.447285
0.611222 0.271495 -0.696920
-0.304000 -0.027916 0.432215
0.221933 -0.274372 0.539050
-0.159128 -0.721398 0.764508
0.093109 0.358701 0.196201
0.755660 0.151180 -0.542705
0.005719 0.889791 -0.123284
0.397185 0.017204 -0.018877
0.590018 -0.638775 -0.110372
0.154729 0.612377 -0.075460
-0.082600 0.570371 0.065658
0.279971 0.377614 -0.145349
0.696249 -0.166553 -0.578970
0.400386 -0.451027 -0.306197
0.020582 -0.078356 0.454979
0.426543 -0.088490 -0.149085
0.679842 -0.160390 -0.435055
0.332499 -0.672216 0.727180
-0.550120 0.415452 0.627070
0.002422 -0.698990 0.784526
-0.203378 -0.045296 0.376725
0.278082 0.186793 0.198297
0.554582 0.019927 -0.744869
0.460277 -0.667526 -0.319072
0.500297 -0.350531 0.340902
0.130199 0.648248 -0.152933
-0.230323 -0.238885 0.458973
-0.008471 0.482876 0.148754
0.759358 0.285249 -0.484708
-0.237247 -0.484264 0.596553
0.103966 0.111446 0.341244
-0.163402 0.249002 0.494441
0.612159 -0.742165 -0.138529
0.789290 0.010557 -0.476667
0.397000 0.076060 -0.028456
-0.131502 -0.587507 0.694588
0.085925 0.115505 0.341202
0.136825 -0.711609 0.797083
0.731135 -0.124311 -0.461534
0.405259 0.041596 -0.041455
0.453289 -0.269708 -0.133599
-0.382952 -0.338757 0.377739
0.397386 -0.277595 0.425828
-0.678913 0.018014 0.534353
0.481081 -0.208714 0.174368
0.487368 -0.227181 0.043925
0.106433 0.652601 -0.018657
0.472144 0.175833 -0.120913
0.395203 -0.461200 0.562992
-0.034817 0.119162 0.371237
0.425698 -0.605061 0.620941
0.634010 -0.593264 0.114688
-0.083980 -0.085731 0.431034
-0.253490 -0.079184 0.374108
-0.105404 0.299508 0.413310
0.321842 0.156775 0.163489
-0.343941 -0.139776 0.305023
0.680502 0.080043 -0.287011
0.506278 -0.464352 -0.159475
0.583104 -0.523049 0.317186
-0.423893 0.067726 0.677032
0.480138 -0.257856 -0.044564
0.454167 -0.021254 -0.141737
0.471301 -0.465730 0.490611
-0.231639 -0.320063 0.505834
-0.251253 -0.120290 0.371769
0.321405 0.316248 -0.065907
-0.186316 0.012746 0.404322
0.599470 -0.834162 -0.224139
0.219098 -0.133659 0.455814
0.351842 -0.022579 0.269157
-0.261857 0.072726 0.505682
-0.079205 -0.433938 0.622010
0.518020 -0.499411 0.445103
-0.082812 -0.115344 0.446927
-0.146993 -0.253615 0.502079
0.667422 0.347546 -0.501521
0.734382 -0.143457 -0.508257
0.276868 -0.186692 0.461323
-0.345733 0.147512 0.635868
0.557316 -0.459216 0.328580
0.679713 0.006106 -0.308864
0.205145 0.501532 -0.084797
0.710682 0.260725 -0.402479
-0.574930 0.126864 0.639750
0.455249 0.307694 -0.200331
0.781412 0.212741 -0.440390
-0.029963 0.975917 -0.174840
0.429411 -0.091503 0.201634
0.201368 0.453299 -0.169267
-0.009867 0.445500 0.173195
0.349840 -0.478524 0.598039
0.377361 -0.578057 0.636268
-0.129448 -0.718439 0.769267
-0.493959 0.509690 0.522376
-0.173095 -0.152186 0.432810
0.555377 -0.634858 -0.179961
0.539999 0.104904 -0.759152
-0.260166 -0.504120 0.600127
0.678552 0.341962 -0.511154
-0.041345 0.817911 -0.067227
-0.340725 -0.047015 0.426761
0.384710 -0.430560 0.549174
0.553712 0.174377 -0.749405
0.669402 -0.129670 -0.390610
0.536083 -0.570342 -0.175804
0.416315 -0.129366 -0.156118
-0.192188 -0.400124 0.571924
0.565078 0.078629 -0.186192
0.377223 0.008704 0.175378
0.713898 -0.877673 0.014908
-0.389876 -0.517199 0.508828
-0.342182 0.408183 0.578891
0.717855 0.287474 -0.584598
-0.445165 -0.766366 0.604767
0.623498 -0.811056 -0.165551
0.435824 -0.418684 0.491029
0.712500 -0.861964 0.019693
0.555878 0.183644 -0.208215
0.193775 0.426776 0.068765
-0.389155 -0.252505 0.307898
0.434020 -0.116604 0.000875
0.162801 0.228014 0.260069
-0.586901 0.034359 0.621175
0.211635 -0.303084 0.563109
0.028541 0.081731 0.363919
0.115493 -0.102165 0.473835
-0.365100 0.089690 0.627731
0.787412 0.104154 -0.476466
0.608157 -0.022692 -0.269623
-0.321733 -0.756622 0.703785
-0.048900 -0.368058 0.600320
-0.274689 -0.433550 0.546287
0.573955 -0.658474 0.496825
-0.287941 0.441705 0.477448
0.673930 -0.698595 0.275186
0.482906 -0.254927 0.240347
0.045817 0.420508 0.169077
0.616796 0.090066 -0.681565
0.613448 -0.587837 0.317350
0.675032 0.329558 -0.463311
0.603718 -0.630514 0.416400
0.633780 -0.673930 0.007228
-0.678201 0.012921 0.534190
-0.572817 0.504379 0.543653
0.672730 -0.811720 0.419509
0.436396 0.332987 -0.222383
0.622217 -0.207985 -0.584631
0.806216 0.010075 -0.424124
-0.200156 0.450315 0.345420
0.540556 -0.494672 0.405260
0.601146 0.212227 -0.245238
-0.294715 0.339911 0.581876
-0.357529 0.285601 0.662324
-0.427935 0.075286 0.689361
-0.370015 0.150764 0.663734
-0.244973 -0.632331 0.684271
-0.161764 0.213578 0.490784
-0.402190 -0.223917 0.261334
0.620141 -0.194017 -0.489282
0.298913 0.117307 0.233826
-0.181226 0.403232 0.412749
0.311288 -0.391757 0.575377
0.665588 0.132113 -0.632296
0.652019 0.071499 -0.269503
0.445685 -0.320236 -0.189339
0.703043 -0.796662 0.195000
0.351089 -0.613972 0.678424
0.527456 -0.188629 -0.416672
0.478151 -0.370115 -0.159129
-0.349468 0.013540 0.529248
-0.096209 0.554288 0.069554
0.499818 0.087115 -0.131606
-0.164780 -0.102649 0.406737
0.805760 0.063779 -0.459047
0.436863 0.032886 -0.089085
-0.015723 0.184124 0.353785
0.486088 -0.210335 0.144444
0.411751 -0.205480 -0.187852
0.205927 0.447308 -0.172253
-0.094166 0.246367 0.420626
-0.573902 -0.023147 0.607041
0.118299 -0.461285 0.660091
-0.447507 0.076494 0.679367
-0.457260 -0.531659 0.418940
0.092893 -0.513779 0.701633
0.252339 0.392823 -0.119930
0.687960 -0.815966 0.367730
-0.097650 -0.127562 0.446617
0.048905 0.416104 0.172079
-0.435542 -0.466376 0.394814
0.406946 -0.010462 -0.041102
-0.058107 0.878624 -0.102396
-0.125589 -0.469734 0.627349
0.667743 -0.798199 0.425878
0.480990 -0.742867 -0.337176
0.532762 -0.033201 -0.763272
-0.245135 0.462901 0.390359
0.351458 -0.549914 0.636202
-0.023756 -0.097693 0.451672
0.616234 -0.626803 0.377401
-0.030055 0.661609 0.021746
0.702580 -0.803065 0.096504
-0.495366 -0.809410 0.580436
0.355582 -0.214074 -0.300777
0.807291 0.109495 -0.452565
0.121018 -0.075758 0.463391
-0.392085 0.258194 0.696418
-0.112688 -0.718751 0.772844
-0.293404 -0.095770 0.356350
0.468732 -0.701402 -0.325590
0.444382 0.121480 -0.086428
0.773679 0.178562 -0.403125
0.000553 0.883025 -0.120211
0.710165 0.331002 -0.552548
-0.196618 0.080870 0.459689
-0.277465 -0.039500 0.408179
-0.000282 0.571305 0.085065
0.503850 -0.640915 -0.262601
0.535042 -0.728483 -0.249579
0.006337 0.914496 -0.152238
0.039705 -0.080198 0.458977
0.604967 -0.941252 -0.248555
0.484053 -0.200162 0.124777
0.576789 -0.523992 -0.014780
0.575636 -0.483768 0.030677
-0.228048 0.363392 0.500953
-0.662601 0.234362 0.522399
0.178145 0.162232 0.284452
0.133183 0.548858 0.039607
0.209521 -0.557176 0.712838
0.470822 -0.633380 0.606237
0.437090 -0.172516 0.291848
0.279804 -0.183236 0.457931
-0.323408 0.465678 0.466204
-0.359698 0.035472 0.556939
-0.368472 -0.392816 0.436439
-0.232844 0.024683 0.439995
0.581157 -0.769763 0.560579
-0.318798 -0.239658 0.394958
0.596189 -0.530571 0.036515
-0.782248 0.336245 0.394209
0.583270 -0.480588 0.239247
0.506674 -0.473266 -0.164927
0.448392 -0.544238 -0.292800
0.152738 0.600629 -0.031419
0.592108 -0.768313 -0.191949
-0.087637 0.579832 0.058023
0.443377 -0.209948 -0.414440
0.324980 0.343576 -0.113153
0.569923 -0.785576 0.591613
0.379966 -0.656564 0.688010
-0.391369 0.394084 0.642381
0.606309 -0.089123 -0.324703
0.235148 0.342840 0.099957
0.351980 -0.090481 0.317172
0.162082 0.553735 -0.179182
0.762583 0.125268 -0.536871
0.557996 0.051892 -0.742418
-0.160182 -0.690276 0.745721
0.465279 -0.318401 0.380544
0.343181 0.105112 0.163491
-0.149510 -0.757990 0.781528
0.619655 0.161128 -0.684832
0.327720 -0.294548 0.500483
-0.486945 -0.026588 0.579143
-0.439233 -0.723376 0.573193
-0.068850 0.455703 0.171079
0.013606 -0.647810 0.764847
0.169466 -0.151777 0.478442
0.319090 0.197220 0.089023
-0.218355 0.390216 0.472350
-0.589781 0.304371 0.612551
0.043857 -0.097798 0.466876
0.421900 -0.189065 0.334986
-0.087036 -0.330501 0.572105
0.154087 -0.365229 0.606069
0.397030 0.207952 -0.047701
0.533607 -0.208014 -0.498922
0.500902 -0.282657 0.010898
0.432472 -0.133453 -0.031045
0.478605 -0.748348 -0.339586
-0.435759 -0.362370 0.318566
0.641344 -0.127336 -0.650819
0.196590 -0.448957 0.648502
-0.007309 0.953010 -0.174925
0.412347 -0.573161 0.607294
0.681151 -0.913135 -0.085078
-0.439085 0.306450 0.722688
-0.412337 -0.301246 0.315121
0.101807 0.435882 0.140467
-0.041231 -0.663885 0.761060
0.153143 0.581111 -0.188267
-0.255841 -0.426595 0.550808
-0.671179 0.416348 0.485775
-0.643617 0.434382 0.512760
-0.134714 0.398754 0.362410
-0.173888 -0.086036 0.395879
-0.013220 -0.376562 0.609183
0.591644 -0.213500 -0.539901
0.180875 0.377620 0.132256
0.682953 0.344792 -0.560614
0.032660 -0.617085 0.750262
0.660325 0.226143 -0.320387
0.625674 -0.579183 0.249676
0.509980 -0.338978 -0.040334
0.400776 -0.111046 0.275976
0.509367 -0.191774 -0.404768
0.493334 -0.256929 0.010300
-0.032963 -0.763647 0.806429
-0.003088 0.654783 0.025208
0.639443 -0.776219 -0.107597
0.264626 -0.219632 0.485478
-0.115324 0.494465 0.107709
-0.610648 -0.003508 0.595655
0.208959 0.024304 0.365304
-0.199559 -0.535331 0.644313
-0.263303 -0.319426 0.486843
0.508268 -0.016931 -0.176657
0.356410 -0.644839 0.696990
-0.020091 0.686910 0.012106
0.090265 0.776678 -0.184006
-0.339973 -0.568503 0.587577
-0.132018 0.004217 0.381916
-0.472833 -0.592795 0.447736
-0.242196 -0.244857 0.456499
0.536482 -0.885389 -0.323026
0.491879 -0.531857 -0.221377
0.491425 -0.455193 0.450600
0.494326 -0.220856 0.130958
0.307867 -0.011236 0.309408
-0.248047 -0.633977 0.683327
0.685591 -0.178606 -0.587893
0.575550 -0.185777 -0.692197
0.629303 -0.608920 0.294899
0.714110 -0.845823 0.055087
-0.791426 0.158576 0.395359
-0.530103 0.360138 0.651681
-0.347667 -0.127733 0.297609
-0.465013 0.003873 0.612158
0.571390 -0.053156 -0.713906
0.605612 0.129360 -0.699481
0.117976 -0.350625 0.600305
0.655096 -0.769000 -0.064975
0.569862 -0.446656 0.154226
0.102343 0.423211 0.145910
-0.007940 0.757205 -0.027997
0.218260 -0.268433 0.536481
0.685501 0.131764 -0.605853
0.417848 -0.140640 -0.148426
-0.429111 -0.424491 0.372268
-0.096961 0.646160 0.017311
-0.413678 -0.658740 0.559035
0.656085 0.178517 -0.649224
0.688169 0.158266 -0.309381
0.128353 0.296008 0.235879
0.351194 -0.034821 0.271477
0.721857 -0.144690 -0.531630
-0.424357 -0.506331 0.447869
0.631040 -0.942954 -0.204587
-0.285964 0.119584 0.563701
0.711189 -0.107391 -0.414029
0.091442 -0.268871 0.547286
0.400342 -0.315457 0.447839
-0.338631 -0.289915 0.400239
0.396990 0.024610 -0.019137
-0.052013 0.457252 0.170201
-0.263908 0.016850 0.452433
-0.312717 -0.526211 0.588009
-0.491287 0.491438 0.561831
-0.066424 0.158832 0.397561
0.541796 -0.632541 0.525676
-0.384656 -0.564989 0.540221
0.247758 -0.229966 0.501464
-0.274811 0.081445 0.519846
0.490737 -0.781918 -0.340139
0.323457 -0.461055 0.600409
-0.250814 0.202050 0.572187
0.447355 -0.005300 -0.122549
0.348246 -0.294999 -0.296697
0.274510 0.345244 0.011273
-0.562724 0.264317 0.639850
0.556114 -0.642776 -0.183850
0.552952 -0.061032 -0.736235
-0.031178 0.114524 0.369932
0.113172 0.644771 -0.015044
-0.130146 -0.314346 0.547264
0.576508 -0.714013 -0.187728
0.425907 -0.370309 0.462494
-0.496719 0.511121 0.524126
0.417642 0.057681 -0.059675
0.058092 0.405222 0.174911
-0.499917 0.497956 0.569289
-0.524814 0.113049 0.705485
-0.243497 0.228431 0.575303
0.560485 -0.425705 0.156129
0.592661 -0.621934 -0.089957
-0.436145 -0.263501 0.245510
0.753121 0.008590 -0.384831
0.507215 -0.340842 0.300434
0.700264 -0.783730 0.207026
0.407765 -0.528279 0.590701
-0.760122 0.255015 0.424650
0.000305 0.328757 0.299177
-0.154278 -0.354526 0.561867
0.076760 0.197712 0.305879
-0.545835 0.084266 0.677570
0.427867 0.108335 -0.066872
0.727542 0.148970 -0.572062
-0.249333 -0.753177 0.749760
-0.260297 -0.054798 0.384456
0.399010 -0.003879 0.074470
0.353730 0.309805 -0.087283
0.211054 0.300007 0.170974
0.450482 -0.163428 -0.011905
0.061432 0.828550 -0.154515
0.781127 0.190840 -0.422494
0.381341 -0.302745 0.454875
-0.437890 -0.525756 0.443912
0.078453 -0.324512 0.580489
0.666473 -0.782563 0.409730
0.425876 0.197591 -0.073236
0.234788 -0.146778 0.459760
0.654208 -0.653035 0.116393
-0.332227 -0.229466 0.371549
-0.322769 0.254194 0.643084
0.206069 -0.074252 0.429092
0.680720 0.173764 -0.308479
0.592498 -0.059409 -0.281827
0.439779 -0.208196 -0.101222
0.412974 -0.160634 0.313670
0.657854 -0.660707 0.157867
-0.148738 -0.598433 0.697241
0.136167 0.421272 0.132778
0.676172 0.258757 -0.628941
0.624574 0.110608 -0.676277
-0.494207 0.102748 0.704728
0.148949 0.167035 0.295707
-0.177290 -0.392363 0.572591
0.077305 0.785642 -0.152691
-0.003684 0.113011 0.356241
0.484178 0.275820 -0.193727
0.544166 -0.507211 -0.119959
0.699192 -0.782786 0.206925
0.226928 0.447254 -0.110650
-0.454083 0.492537 0.538434
0.397917 -0.181648 -0.293745
0.417740 -0.515368 0.575810
0.675511 -0.732244 0.110603
0.253016 -0.483818 0.648819
0.055681 -0.572995 0.732194
-0.084757 0.319049 0.383323
0.079159 0.799363 -0.188646
-0.768597 0.395667 0.398196
-0.433137 0.095542 0.708040
-0.102177 0.236097 0.429228
0.467153 -0.690785 -0.324242
0.501042 -0.241476 0.104303
0.631534 -0.806968 -0.144985
-0.372086 0.276986 0.675060
0.647439 -0.706418 0.007454
0.481690 -0.310727 0.342848
0.563685 -0.214005 -0.696242
0.035549 0.336310 0.258927
0.474573 0.341350 -0.277433
-0.437315 0.024259 0.618176
0.155587 0.608071 -0.087196
-0.738133 0.169796 0.459937
0.048279 0.482538 0.132170
-0.012173 -0.118858 0.460689
0.265242 -0.074642 0.397583
0.680678 -0.753041 0.071836
0.700230 -0.824411 0.320713
-0.498258 0.450224 0.661729
0.034453 -0.341668 0.592822
0.155450 0.574887 -0.181773
-0.154581 0.433516 0.326325
0.706585 -0.829896 0.289115
-0.141258 -0.650127 0.727708
0.501047 -0.633831 -0.265841
-0.241608 -0.082682 0.374287
-0.622567 0.182596 0.569483
-0.159291 -0.741813 0.771417
0.499867 -0.727826 0.645804
0.112152 -0.248914 0.535541
0.577468 -0.185684 -0.683399
0.422267 -0.712754 0.690785
-0.005746 0.715671 -0.005725
-0.229047 0.168996 0.534202
-0.433485 -0.384653 0.337185
0.421265 -0.164409 -0.296681
0.279045 -0.477113 0.632672
-0.484740 -0.651595 0.476876
0.581470 -0.771744 -0.213333
0.582213 -0.564541 -0.057178
0.460950 -0.392330 -0.201782
0.765945 0.039772 -0.372228
0.453082 -0.073719 -0.170358
-0.212317 0.095817 0.484144
-0.055736 0.956263 -0.146464
0.650410 -0.699081 0.368646
-0.241750 -0.457272 0.579396
0.316320 -0.715654 0.757807
0.546011 -0.401590 0.126918
0.564210 -0.559808 0.429016
0.253543 -0.211493 0.487036
-0.581794 0.419255 0.580889
0.685735 -0.729529 0.224331
0.073493 0.799662 -0.158997
0.513712 -0.909082 -0.347874
-0.183965 -0.005504 0.388859
-0.067990 0.790446 -0.051768
0.544196 0.333120 -0.350165
0.247270 0.084988 0.302992
0.028432 0.883404 -0.137193
-0.532370 -0.014988 0.609616
-0.033777 -0.240305 0.527770
0.352663 0.180629 0.005868
-0.018879 0.620606 0.046566
0.375552 0.025764 0.151722
0.583892 0.074811 -0.208066
-0.200998 -0.409858 0.569759
-0.347074 0.055970 0.576110
-0.000888 0.397172 0.218996
-0.021351 0.932531 -0.157576
0.514855 -0.372810 -0.069502
-0.322190 -0.601296 0.611400
0.368945 0.310086 -0.104705
0.641179 -0.097691 -0.345778
0.678687 -0.898932 -0.087178
-0.115575 0.194768 0.442270
0.101517 0.724104 -0.142475
0.428439 -0.138262 -0.058516
0.508296 0.126506 -0.142706
0.376912 -0.630057 0.673085
0.186674 -0.354792 0.600764
0.430324 -0.371602 0.459355
-0.716387 0.282044 0.468425
-0.478383 0.309738 0.702035
0.478531 -0.276844 0.297869
-0.008778 0.889621 -0.121176
0.068362 0.813630 -0.173494
-0.311636 0.075491 0.563339
0.321541 -0.545700 0.650996
0.028403 -0.155086 0.485482
0.554915 -0.474598 -0.052392
0.515969 -0.657884 0.577739
0.570416 -0.504803 -0.022331
-0.434104 0.500106 0.495540
-0.140757 -0.730619 0.771670
0.005344 0.146164 0.347703
-0.070592 -0.681057 0.763254
0.119713 -0.330251 0.590625
0.560286 -0.442117 0.068840
-0.463006 0.430070 0.674342
0.259545 -0.628925 0.734707
0.486685 -0.475767 -0.195644
0.780588 0.219814 -0.450653
-0.378319 -0.290013 0.352352
-0.245657 0.017361 0.445300
0.659827 0.160678 -0.284001
0.611971 -0.727457 0.481398
-0.018124 0.389133 0.249259
0.000082 -0.388637 0.616936
0.567917 -0.146548 -0.707788
0.141089 0.431463 0.116648
0.378976 0.326762 -0.153587
0.648842 -0.129902 -0.642464
-0.215363 0.411709 0.449701
0.485306 -0.278577 -0.058942
-0.075947 -0.430884 0.622142
0.775856 -0.086683 -0.460998
0.552156 -0.416021 0.155107
-0.261500 -0.212492 0.423761
0.120949 0.626377 -0.011639
0.363665 0.138982 0.016850
0.779566 0.133056 -0.393172
-0.328756 0.463520 0.473685
-0.781700 0.148660 0.408543
0.428179 -0.458157 0.531572
0.445806 -0.328816 -0.196587
-0.455510 0.147976 0.727186
0.724520 -0.857633 0.207730
-0.773720 0.358900 0.398122
0.042594 0.422667 0.172979
0.019281 -0.247330 0.532299
0.626616 0.304871 -0.389154
0.409802 -0.031559 0.103298
0.275773 -0.387505 0.593198
0.148744 -0.727098 0.806186
-0.754331 0.060187 0.460794
0.550448 -0.406303 0.100961
0.624083 -0.789938 0.507477
-0.031230 -0.756617 0.803255
0.334106 -0.279187 0.478592
0.533536 -0.727285 0.611606
-0.373872 -0.398584 0.434601
-0.219537 0.154038 0.522082
-0.195868 0.306814 0.506647
-0.291605 -0.089936 0.366924
0.701013 0.338182 -0.523001
-0.397475 -0.010761 0.526581
0.538741 -0.370693 0.141064
0.647128 -0.738008 -0.045209
0.059989 -0.095076 0.467748
0.165486 -0.621488 0.751711
0.726101 -0.855225 0.144635
0.421934 -0.145953 -0.098401
0.066681 0.673161 -0.001699
-0.287252 0.417349 0.513929
0.216908 0.354443 0.108262
0.346585 -0.162237 0.386758
-0.234008 -0.100751 0.376414
0.088516 -0.108426 0.478936
0.029951 0.895551 -0.179669
-0.785810 0.324552 0.388814
0.185343 0.536730 -0.103523
0.370447 -0.484278 0.590576
0.023434 0.100222 0.355306
-0.496508 -0.773597 0.555511
-0.464038 0.042668 0.651553
-0.037909 -0.045477 0.418321
-0.313351 -0.445751 0.529477
0.307401 0.361220 -0.122944
0.794022 0.105183 -0.416827
0.587355 -0.785919 -0.213779
-0.020528 0.563070 0.087333
-0.423578 -0.357872 0.334097
-0.139482 0.198930 0.465063
-0.468001 0.253500 0.725784
0.590429 -0.754839 0.540813
0.619619 0.193860 -0.258931
-0.337812 -0.042785 0.434047
0.498383 -0.241953 0.101222
-0.638748 0.333787 0.531329
-0.072520 -0.629444 0.732095
0.071552 0.787173 -0.125834
-0.180773 0.357486 0.453614
0.501301 0.156200 -0.145102
-0.239538 -0.251096 0.462066
0.356376 -0.288967 0.468410
0.163761 0.524971 0.017674
-0.112023 0.581431 0.044160
0.783008 0.223227 -0.447020
0.466029 -0.657920 0.622472
0.079843 -0.674965 0.780215
0.379517 0.051550 0.081296
-0.310128 0.472194 0.445634
0.514184 0.317661 -0.273978
0.655120 -0.659348 0.112137
0.551954 -0.153691 -0.359910
0.689288 -0.797701 0.330077
-0.623904 0.068467 0.582538
0.701990 -0.798097 0.096737
-0.695960 0.414491 0.460041
0.677326 0.108248 -0.617182
0.224413 -0.620259 0.740759
0.512566 -0.298583 0.036986
0.251643 -0.693197 0.776016
0.095851 0.285197 0.259154
-0.473040 -0.751249 0.566754
0.219424 -0.371490 0.605975
-0.008541 0.948715 -0.171600
0.702680 -0.179718 -0.496162
0.661956 0.035586 -0.278657
-0.741663 0.161093 0.455462
-0.393702 -0.615879 0.555393
0.514456 -0.283019 0.118029
-0.388276 -0.587979 0.546438
0.077811 -0.102308 0.472998
0.101484 0.529543 0.079661
0.685972 0.215034 -0.336939
-0.297134 -0.619423 0.645957
-0.130757 -0.593242 0.698272
-0.081639 -0.261890 0.529064
0.468014 -0.203515 -0.408657
0.502625 0.053161 -0.808552
0.137209 0.216075 0.280232
-0.095084 0.686948 -0.003061
0.380789 -0.204342 -0.336312
0.576453 -0.113901 -0.325055
0.274092 0.393536 -0.191893
0.374945 -0.203612 -0.299617
0.317024 0.104712 0.214120
-0.091036 0.363598 0.356784
0.017306 0.911479 -0.148988
0.119276 -0.051158 0.448309
-0.148024 0.399074 0.380175
-0.378177 0.487344 0.471869
0.021648 -0.729226 0.803514
-0.669236 0.231436 0.516998
-0.154232 0.229390 0.487538
-0.292003 0.313270 0.596960
-0.712565 0.028661 0.504343
-0.739819 0.055646 0.477486
-0.187905 0.038514 0.431542
-0.110742 0.486544 0.115585
0.206964 -0.032901 0.407107
-0.338194 0.452692 0.502726
-0.310079 -0.680730 0.673460
0.436399 0.339970 -0.233023
0.455475 -0.216798 0.301953
-0.174947 -0.753680 0.773449
-0.014342 0.142515 0.359243
-0.024283 0.933680 -0.148391
0.076518 0.066084 0.373403
0.116148 0.684115 -0.170259
0.231691 -0.523298 0.684658
-0.673589 0.326554 0.496032
-0.303521 -0.545228 0.602659
0.586328 -0.808615 -0.228398
-0.134382 0.403297 0.348946
0.498759 -0.826596 -0.343304
0.279597 -0.678315 0.756581
0.655502 -0.659841 0.118948
0.145431 0.254122 0.257635
0.254318 -0.325291 0.566992
0.152436 0.607945 -0.103178
0.313709 0.188375 0.128123
-0.041229 0.598993 0.057873
0.383592 0.081541 -0.006781
-0.326442 0.152093 0.622867
0.562658 -0.838801 -0.274605
-0.438920 -0.641623 0.518786
0.486698 -0.087916 -0.216281
-0.267159 0.205137 0.587899
0.799315 -0.031053 -0.438854
0.517831 -0.614854 -0.235040
0.630081 -0.175491 -0.652045
-0.197020 -0.310456 0.519346
0.513626 -0.057743 -0.215100
0.296737 -0.410288 0.590045
0.417301 0.146835 -0.053612
0.007758 -0.629563 0.754148
0.347376 0.183650 0.012039
-0.190636 -0.166925 0.430261
-0.096786 0.761277 -0.038022
0.053297 -0.725342 0.804954
-0.116773 0.570359 0.048937
-0.309277 -0.544433 0.599004
-0.128361 0.352486 0.403063
0.022324 0.201503 0.327319
0.349326 -0.561843 0.644713
0.461531 -0.173938 0.018474
0.206304 -0.568254 0.719636
-0.475305 -0.016711 0.589191
0.701498 0.325178 -0.474185
-0.717375 0.261128 0.472600
0.098633 0.692977 -0.075413
0.578743 -0.699977 -0.174693
0.643227 -0.017929 -0.650856
0.512432 -0.296089 0.187359
-0.034178 0.847258 -0.083563
0.234917 -0.415451 0.623530
0.408678 0.082929 -0.044400
-0.270450 0.204389 0.588167
0.560869 -0.944687 -0.309280
0.552371 -0.426871 0.011336
-0.087620 0.228471 0.413499
0.452269 -0.119401 0.124112
0.447171 -0.172272 -0.036269
-0.165077 0.074020 0.434897
0.042475 -0.414046 0.634846
0.578262 -0.458495 0.199339
0.660283 -0.657765 0.194600
-0.258539 -0.418404 0.543472
0.348755 -0.536808 0.627159
-0.457489 -0.501979 0.397884
0.417622 -0.140246 -0.148974
0.664113 0.259115 -0.358069
0.510081 -0.742146 0.643513
0.316325 0.272765 -0.010808
0.592875 -0.556256 0.344189
0.763914 0.192245 -0.535479
0.024809 0.882033 -0.133624
-0.371351 -0.139200 0.265899
0.441574 -0.622334 -0.327140
0.210394 0.353766 0.114945
-0.216968 -0.134419 0.396294
0.280297 0.355917 -0.082887
-0.603968 0.030853 0.613157
-0.438627 0.178844 0.733812
-0.348837 -0.560943 0.578767
0.106354 0.113363 0.339437
0.320049 0.233413 0.023341
-0.418286 0.207442 0.708669
0.503123 -0.319805 -0.042765
0.086647 -0.131151 0.481849
0.722287 -0.849681 0.159830
-0.110158 0.495877 0.105677
-0.388712 -0.315000 0.356611
0.424151 -0.146067 -0.088668
0.628871 -0.828580 -0.170218
0.524552 0.131968 -0.775465
0.772246 0.156474 -0.391752
0.649919 -0.725571 -0.020350
0.675189 -0.717877 0.172847
0.244609 0.181429 0.234754
-0.189322 0.046567 0.435839
-0.573452 0.267942 0.622892
0.355498 0.196451 -0.011402
0.123087 0.116668 0.333532
0.690403 -0.751702 0.253568
0.776789 0.201643 -0.419498
0.595789 -0.555103 0.003048
0.116395 -0.055199 0.450314
0.596355 -0.540061 0.032696
0.631368 -0.036299 -0.291053
-0.622827 0.345183 0.546262
0.272868 -0.154869 0.445141
0.301355 0.204723 0.130947
0.508277 -0.014788 -0.171998
0.392412 0.026210 0.062453
0.786807 0.075337 -0.462303
0.078184 0.662660 -0.000550
0.541925 -0.529456 -0.136998
0.466808 -0.648381 -0.311220
0.579834 -0.204278 -0.682493
0.528477 0.346255 -0.358466
0.583348 0.088268 -0.206248
0.356436 -0.528339 0.620826
-0.351977 -0.692003 0.637422
0.022264 0.358630 0.241498
-0.144054 0.442345 0.294843
0.541842 0.033649 -0.757636
0.162751 0.597442 -0.090216
-0.196553 0.220576 0.526986
0.454342 -0.168625 0.005837
0.246601 -0.101726 0.426233
0.341747 -0.291775 -0.308301
-0.326243 0.321081 0.621956
0.540378 -0.150681 -0.346009
0.651155 -0.691327 0.360649
-0.308430 0.057360 0.538366
0.466248 -0.088017 -0.200074
0.699143 -0.797541 0.087972
-0.198611 0.360993 0.471056
0.499797 -0.492923 -0.181447
0.728355 0.285448 -0.561686
0.613014 0.121586 -0.240607
0.453675 0.250105 -0.136467
-0.191860 0.245898 0.527627
0.588501 -0.477458 0.166342
-0.457704 -0.762508 0.592870
0.658945 0.013520 -0.638719
0.605962 -0.093455 -0.678018
0.589104 -0.605925 0.426509
-0.656748 -0.009641 0.557795
-0.588239 0.045473 0.632750
-0.422347 -0.468087 0.417932
-0.545310 0.215702 0.655717
0.408956 -0.181109 -0.271474
0.386152 -0.321015 -0.261439
0.028361 0.358438 0.236073
-0.116652 0.343484 0.399048
-0.661180 -0.006048 0.549712
0.573539 -0.521776 -0.037843
0.487681 -0.657201 -0.290929
-0.448016 -0.004086 0.577181
0.514147 0.098467 -0.793556
0.264798 -0.135328 0.437813
0.178130 -0.046136 0.427150
-0.229683 0.460937 0.371279
0.633873 -0.727632 0.439549
-0.361862 0.120912 0.649125
0.323478 0.251970 -0.005574
0.006352 0.322651 0.299247
-0.712579 0.153780 0.492679
0.661832 -0.016716 -0.304501
-0.156109 -0.459131 0.615141
-0.116222 0.404901 0.334341
0.479834 -0.190294 0.128684
0.120140 -0.544370 0.719253
0.602860 -0.624109 -0.041325
0.518523 -0.303374 0.160537
0.075951 0.283707 0.267322
0.046212 0.867568 -0.178855
0.702109 -0.791533 0.229589
0.390650 0.026030 0.066269
0.363692 0.166032 -0.002348
-0.233827 -0.701178 0.727800
-0.193720 0.424219 0.390303
0.665303 -0.735218 0.366605
0.226383 -0.258497 0.527482
0.593978 -0.627985 -0.090447
0.162741 0.559909 -0.159593
0.380885 0.277974 -0.083251
-0.572782 0.028995 0.635110
0.610812 -0.526306 0.172222
-0.551114 0.166386 0.658149
0.289795 0.379528 -0.176108
0.458392 0.026322 -0.111234
-0.536316 0.463999 0.612503
-0.317502 0.021702 0.516400
0.142352 -0.017342 0.423832
0.405630 -0.015930 -0.024755
0.705547 -0.814187 0.227028
-0.181953 0.374675 0.441691
0.590702 0.314514 -0.367608
0.771248 -0.050202 -0.480465
0.494087 -0.067839 -0.203415
0.636507 -0.596747 0.132743
0.477960 -0.467159 0.484398
0.142283 0.623480 -0.148818
0.157344 0.563417 -0.185567
0.768229 0.273466 -0.495250
0.493713 -0.570579 -0.244059
0.668020 -0.701138 0.314680
0.552376 -0.413503 0.186091
0.538518 -0.039498 -0.219286
0.241447 -0.678909 0.769623
0.539017 0.316644 -0.308073
0.310782 0.171808 0.164794
-0.009058 0.324402 0.312911
-0.418403 -0.688448 0.569384
0.269892 0.131044 0.248852
0.138133 -0.213609 0.517446
0.619534 0.119214 -0.683437
0.519727 -0.545978 -0.184051
0.526117 -0.524786 0.462420
-0.327535 -0.398383 0.479480
-0.211798 0.304477 0.526188
-0.021864 0.757963 -0.030639
-0.331766 -0.345062 0.445551
-0.116965 0.144565 0.428532
0.658367 -0.714860 0.030626
0.200905 0.500435 -0.019630
-0.420463 0.306894 0.699495
0.646582 -0.810356 0.479839
0.049954 0.097343 0.357455
0.475171 -0.497540 0.511106
-0.388282 0.397047 0.636976
-0.591040 0.208465 0.598164
0.608686 0.161816 -0.693506
0.328033 -0.097669 0.352102
0.023366 0.458682 0.152558
0.644820 -0.172349 -0.451044
-0.272167 -0.738528 0.728696
0.088163 -0.373861 0.613141
0.689085 -0.759573 0.150271
0.324798 -0.596541 0.681124
0.278789 -0.362132 0.575218
0.094983 0.559024 0.062177
0.432930 -0.769313 0.714599
0.349349 -0.300550 0.483014
0.091422 -0.494012 0.685363
0.584161 -0.892041 -0.272310
0.685436 -0.812135 0.378659
-0.370865 -0.758806 0.659965
0.713580 -0.859695 0.026419
0.589780 -0.537233 0.319383
0.565256 -0.205271 -0.561638
-0.294462 0.292749 0.609912
0.371126 0.323892 -0.132457
-0.177912 -0.685113 0.738663
-0.122696 -0.313979 0.549690
-0.000245 -0.279705 0.545700
0.548187 -0.677759 -0.211928
0.385304 0.173455 -0.030078
0.496524 -0.138708 -0.299243
0.493588 0.284085 -0.213118
-0.082863 0.225680 0.407560
0.117555 0.629502 -0.009128
-0.465825 -0.578014 0.446544
0.237179 0.422817 -0.006124
0.147059 -0.201110 0.507656
0.644825 0.033825 -0.654902
0.706325 -0.841108 0.023798
-0.327776 -0.430501 0.503442
-0.268428 -0.006378 0.432312
0.720510 -0.105737 -0.418549
0.629690 0.249652 -0.312197
-0.019476 -0.629055 0.746066
0.279403 0.088225 0.269377
0.416174 -0.048071 -0.072641
0.117088 -0.002194 0.420824
0.412702 -0.536278 -0.323667
0.763672 0.030066 -0.512784
0.567958 -0.860401 -0.277735
-0.511097 -0.707345 0.488152
0.794622 0.102885 -0.447030
0.725102 -0.858167 0.199824
0.004238 0.781600 -0.050973
0.759822 0.165859 -0.376397
-0.032322 0.833460 -0.075461
-0.143531 0.111163 0.435267
0.219766 0.176699 0.254999
-0.076856 -0.590121 0.710148
-0.493574 0.179330 0.714311
0.433523 -0.091720 0.172127
0.528494 -0.058546 -0.228476
-0.694046 0.138486 0.514207
0.671133 0.200237 -0.312588
-0.430954 -0.364943 0.329413
0.662606 0.336502 -0.467027
-0.558173 0.345801 0.634697
-0.042778 0.937971 -0.144649
0.690936 0.324837 -0.475623
0.238402 0.211003 0.216000
-0.117358 0.001976 0.380821
-0.337965 0.012575 0.521025
0.295920 0.378625 -0.183022
0.534739 -0.367193 0.238022
0.494388 -0.352606 0.360713
0.584655 -0.604155 -0.100929
0.796481 0.036762 -0.411037
0.306946 0.265909 0.034907
0.534872 -0.361763 0.198002
0.721956 -0.126447 -0.453758
0.627152 -0.662079 0.387824
0.378569 -0.006483 0.205096
0.466202 -0.158827 0.090909
-0.483325 -0.654316 0.480027
-0.512622 0.231892 0.695297
0.118446 0.397206 0.158986
0.238334 -0.110277 0.435630
0.225404 -0.538285 0.696347
0.058858 -0.284195 0.554129
-0.145364 -0.304136 0.535399
0.380483 0.061025 0.057095
0.294863 0.221348 0.127552
0.715897 0.022456 -0.583251
0.589122 -0.505459 0.071451
0.406419 0.052725 -0.046459
0.491196 -0.273681 -0.021710
0.392020 -0.415615 0.537818
0.714612 -0.016870 -0.360830
-0.309286 -0.412271 0.505504
-0.258292 0.353084 0.546249
-0.385874 0.388023 0.642596
0.493694 -0.573459 -0.248939
0.682614 -0.040208 -0.342109
0.405485 -0.164550 -0.258028
0.801219 0.089713 -0.428087
0.594107 -0.901615 -0.255219
0.743930 0.084081 -0.542936
0.415901 -0.407123 -0.273056
0.618459 0.303876 -0.381364
-0.429007 -0.503231 0.436261
0.672641 -0.723746 0.322290
0.327356 0.348200 -0.121020
0.718362 -0.845424 0.190494
-0.238348 -0.713157 0.731207
-0.112337 0.111103 0.408253
0.293202 0.136686 0.223974
-0.139459 -0.178077 0.458874
0.049188 0.859086 -0.177202
-0.207599 0.180736 0.522820
0.412941 -0.611574 0.637507
0.569713 -0.697872 0.534321
0.551344 0.095073 -0.176215
-0.222506 0.378540 0.482020
0.476694 -0.165293 -0.334280
0.635215 0.273120 -0.677691
-0.439567 -0.284030 0.249430
0.617888 -0.559437 0.108229
0.520245 0.298888 -0.247232
-0.701848 0.297601 0.480222
0.407946 -0.539552 0.593576
0.599762 0.305768 -0.368193
0.537515 -0.745277 0.616097
0.651321 -0.638424 0.130744
0.572016 0.164730 -0.215988
0.406504 -0.081562 0.236473
0.432145 -0.120961 -0.010188
0.555751 -0.442264 0.024083
0.138399 -0.540643 0.715052
0.610846 -0.726012 -0.132815
-0.391533 -0.152763 0.242781
0.097177 -0.323286 0.581305
0.663094 -0.194067 -0.581212
-0.378382 0.193051 0.675901
0.230852 -0.079196 0.417124
0.183514 0.547644 -0.081341
0.414826 -0.135943 -0.187141
0.487124 -0.349210 -0.134293
-0.478541 0.163864 0.729988
0.437753 -0.108070 0.033506
0.369321 -0.281818 0.448764
-0.643472 0.009360 0.563874
-0.804529 0.194684 0.376315
0.493656 -0.431370 -0.161186
0.101128 0.625068 0.010779
0.565578 0.170646 -0.732909
0.255536 0.317945 0.106825
0.595025 0.086604 -0.218604
0.551573 -0.810109 -0.274192
0.464814 -0.701655 -0.330860
-0.169017 0.446079 0.314356
-0.625162 -0.009239 0.583592
0.537436 -0.371469 0.184656
0.604050 -0.741433 0.509612
0.236225 0.427865 -0.014804
0.670944 -0.776429 -0.025244
0.602465 -0.506049 0.211314
-0.597832 0.202684 0.594031
0.595461 -0.515789 0.078153
0.130768 0.645362 -0.120292
0.632777 -0.594594 0.248449
-0.725959 0.383423 0.434305
-0.033781 0.404706 0.231560
-0.798577 0.227354 0.382698
0.065537 0.044616 0.387919
0.726048 -0.139347 -0.545225
-0.177624 -0.116347 0.408643
-0.325772 0.032909 0.532840
-0.095087 -0.091142 0.430495
-0.302755 0.099450 0.567810
0.402992 -0.395602 0.510950
-0.017395 -0.147339 0.473720
0.030926 0.894120 -0.147839
0.707209 -0.815848 0.175015
0.133720 -0.216604 0.519568
0.395759 -0.211037 0.375395
0.572735 -0.778137 0.585745
0.223915 0.172127 0.252436
0.449029 -0.612102 0.607362
-0.103673 0.482632 0.120923
0.182692 0.201459 0.264002
-0.220309 0.452321 0.372612
-0.081924 -0.198304 0.490051
0.711094 -0.004749 -0.347223
-0.410325 0.273810 0.720322
-0.399543 -0.265352 0.301296
0.622700 0.339260 -0.437283
0.289483 0.123998 0.239976
-0.551837 0.050237 0.634938
0.614960 -0.573356 0.288239
-0.081282 0.122276 0.396315
-0.788736 0.327791 0.384432
-0.333171 0.435192 0.533725
-0.244361 0.465697 0.381946
0.169694 0.522474 -0.187991
0.558484 -0.484424 0.351484
0.556631 -0.443172 0.015189
0.251229 -0.650021 0.754013
0.191900 -0.043939 0.420711
-0.117411 0.551374 0.062332
-0.732159 0.238030 0.458580
-0.267799 -0.467069 0.571531
0.115208 -0.740511 0.812053
-0.386240 -0.622900 0.565802
0.364472 -0.344336 -0.292907
-0.796439 0.287388 0.383256
0.363224 -0.640624 0.693878
0.559173 -0.569591 0.445629
0.561404 -0.629920 0.493161
0.657026 -0.051001 -0.635255
0.302592 -0.397581 0.581905
0.181317 -0.505089 0.685783
-0.315506 0.023668 0.516466
0.333471 -0.022826 0.286409
0.549421 -0.476481 -0.078735
-0.713999 0.274096 0.472921
-0.659415 0.174523 0.539997
0.501335 0.126512 -0.134201
-0.140976 0.405118 0.365296
0.016812 -0.579974 0.727124
-0.633683 0.096144 0.569811
0.088225 -0.211531 0.516862
-0.534796 0.063061 0.678024
-0.096337 0.005858 0.381752
0.804967 0.116063 -0.442447
0.079320 0.514454 0.099634
0.298953 0.064499 0.266431
0.805988 0.088581 -0.452589
0.008884 0.445897 0.165668
0.614222 0.126276 -0.241227
-0.041037 0.719123 -0.007540
0.689291 0.017506 -0.612431
0.650229 0.066760 -0.266863
-0.028283 -0.546191 0.695104
0.384587 0.109729 -0.011496
0.198883 -0.488563 0.673522
0.510548 -0.654955 -0.261644
0.806081 0.013447 -0.444679
0.641787 -0.646454 0.321208
0.704999 -0.823889 0.033979
-0.080396 0.068955 0.379045
-0.545106 0.446770 0.622233
0.559622 -0.826595 -0.272781
0.001384 0.615517 0.049995
-0.577682 0.509070 0.552049
0.356954 -0.009252 0.243102
0.112958 0.345916 0.197989
-0.302676 -0.514723 0.588103
-0.387446 -0.460184 0.461509
0.549179 -0.405453 0.228125
-0.508667 0.461610 0.635006
-0.053260 -0.052334 0.417040
-0.726567 0.019285 0.494722
-0.301944 -0.543358 0.602884
0.535309 0.172131 -0.765663
0.596443 0.252572 -0.277176
-0.569358 0.448166 0.593648
0.653655 -0.798388 -0.094621
0.670127 -0.695912 0.177794
0.669145 -0.807501 -0.058152
0.725453 0.322539 -0.558386
-0.023249 0.729964 -0.014347
0.307171 -0.728953 0.771527
0.480983 -0.213126 0.024477
0.204845 0.009225 0.377432
0.262639 -0.686885 0.768272
-0.441711 0.410846 0.676002
0.392680 0.016691 0.027999
0.330123 0.215214 0.015927
0.071138 -0.336374 0.588713
0.686972 -0.769309 0.092946
0.723444 -0.856160 0.197881
0.124303 0.670967 -0.172855
-0.484755 0.135613 0.725377
0.308306 0.270600 0.024471
0.429517 -0.093845 0.020151
0.486133 -0.208501 0.086787
0.528054 -0.319693 0.093771
-0.454828 0.375402 0.698218
-0.248782 -0.051391 0.384865
-0.507540 -0.018318 0.589395
0.595059 -0.675384 0.470872
0.699754 -0.036963 -0.592399
0.100204 -0.570086 0.733198
0.482187 -0.230659 0.205606
0.559738 -0.575003 -0.136710
0.673710 -0.900218 -0.098769
0.051185 0.137810 0.339490
0.491154 -0.628628 0.584721
0.467819 -0.477173 -0.227019
0.523397 -0.092648 -0.256014
0.235464 -0.386149 0.609211
0.417047 -0.472173 -0.294965
0.171827 0.546848 -0.142848
0.119763 -0.057607 0.453323
-0.075931 -0.568592 0.698584
0.737224 0.302162 -0.558591
-0.038188 0.852533 -0.086175
0.786307 0.206691 -0.445066
0.731610 0.232082 -0.394945
-0.055123 0.042383 0.373693
0.578750 -0.521901 -0.008364
0.520971 -0.349672 0.253230
0.658833 -0.806020 0.451609
0.421420 -0.111645 -0.173092
-0.357779 0.412852 0.595839
0.704982 -0.805191 0.264905
0.545926 0.002531 -0.753985
-0.068565 -0.410618 0.615002
0.423550 -0.149387 -0.261956
0.439713 -0.143484 0.240658
0.606551 -0.212387 -0.561857
-0.161461 -0.023789 0.381325
0.378348 -0.293824 -0.260365
0.674794 -0.704020 0.279539
0.140399 0.622267 -0.118852
0.058284 0.819201 -0.135061
0.774127 0.205685 -0.521082
0.570635 -0.560315 -0.105383
-0.074075 -0.691662 0.767086
0.194472 -0.014661 0.401093
0.369060 0.231452 -0.033579
0.411323 -0.028966 0.103244
0.608434 0.347474 -0.441148
0.610846 -0.771845 -0.162013
0.527245 0.174813 -0.177541
0.553687 -0.931066 -0.317565
-0.196125 -0.713404 0.749230
0.055361 -0.443479 0.653297
0.114679 0.668587 -0.095378
-0.176884 -0.278511 0.506798
-0.209990 -0.614138 0.684727
-0.189547 0.319673 0.489979
0.084967 -0.024534 0.435753
0.548076 -0.420528 -0.006921
-0.083398 0.520353 0.102318
-0.454015 0.470789 0.602668
-0.644710 0.047369 0.561228
0.065994 0.256460 0.289595
0.050054 0.039598 0.389746
0.141066 -0.535344 0.710196
0.509502 -0.455815 -0.147530
-0.604308 0.509812 0.513925
0.600845 0.250109 -0.711684
0.447885 -0.135025 0.033390
0.442974 -0.246718 -0.133939
0.459322 0.355505 -0.299058
0.714981 -0.832949 0.101916
0.538769 -0.635859 0.530389
0.633339 -0.629538 0.060100
0.170011 0.580675 -0.061078
0.579025 -0.505970 0.320179
-0.632458 0.482474 0.499968
0.559062 -0.446768 0.303492
0.508854 -0.271830 0.145520
0.335919 -0.527638 0.630826
0.783135 0.182295 -0.510978
0.527790 -0.352276 0.021411
0.690399 -0.839813 -0.030147
-0.466226 0.311058 0.702338
0.532963 -0.418753 -0.068237
0.574559 -0.504407 0.330600
0.114420 -0.739005 0.812783
0.528763 -0.324571 0.088752
0.202726 -0.604634 0.735079
