0.136248 -0.200133 0.513295
-0.640237 0.438445 0.484891
-0.208578 -0.633455 0.681704
-0.087807 0.782786 -0.032282
0.061496 -0.688379 0.741367
-0.146897 0.250675 0.527367
0.555942 0.227012 -0.179659
-0.431249 -0.664749 0.504255
0.298875 -0.303144 0.549690
-0.376987 0.486592 0.621782
0.573533 -0.147283 -0.721700
0.488728 -0.755294 -0.295149
0.287110 -0.748154 0.821650
-0.223265 -0.618060 0.688343
0.719865 -0.085410 -0.541688
0.007529 0.056325 0.364573
0.562205 0.321208 -0.216469
0.472459 -0.842622 -0.362793
0.343813 0.113141 0.045919
-0.101072 0.042242 0.418860
0.421006 -0.335668 -0.247003
-0.463945 0.332109 0.731780
0.454228 -0.061662 -0.016227
0.684266 0.173878 -0.564864
-0.003167 -0.598107 0.760876
0.454181 -0.439454 -0.226957
0.502295 -0.184639 -0.271780
-0.291635 0.372867 0.516461
0.679525 0.028181 -0.303787
0.347692 0.007844 0.100047
-0.445976 -0.441170 0.355865
-0.048386 0.784662 -0.089517
0.542344 -0.915700 -0.314756
-0.405416 -0.770164 0.692820
-0.210015 0.204701 0.503188
0.256850 -0.293201 0.466369
0.412699 -0.120093 -0.102792
0.739242 0.023066 -0.367131
0.524147 -0.342140 0.020617
0.400007 0.122079 -0.000411
0.159741 0.501632 0.086250
0.421968 0.368501 -0.226701
0.526713 -0.433395 0.097825
0.559245 -0.653112 0.552340
-0.091124 0.431307 0.226750
0.528866 -0.525047 -0.083554
0.411717 -0.535110 -0.328692
0.466972 0.345119 -0.327064
0.398554 -0.397651 -0.266938
0.633128 -0.783309 0.521392
0.243347 0.550536 -0.083599
-0.013573 0.454880 0.247176
0.139908 -0.004139 0.370600
0.768178 0.228124 -0.395807
-0.013644 0.231624 0.370944
0.473807 -0.120976 -0.179227
0.714961 0.311803 -0.444692
0.591531 -0.866040 -0.282972
0.490419 -0.201013 0.309995
-0.388938 -0.009853 0.412176
-0.562860 0.152063 0.715028
0.592846 -0.463649 0.072124
-0.581255 0.123225 0.615564
0.381377 -0.343732 -0.253242
-0.526907 0.078952 0.652629
0.484872 -0.173218 -0.006587
0.296420 0.057531 0.339885
0.067363 -0.165645 0.541077
0.227880 0.439218 -0.142959
-0.296016 -0.523909 0.607890
0.573533 0.160107 -0.704616
0.225546 0.078973 0.357208
0.459012 0.377446 -0.248437
0.162424 0.461826 0.105413
-0.067968 0.930368 -0.152564
0.603803 -0.501604 0.127450
-0.390177 -0.259469 0.313691
-0.467346 0.293934 0.693960
0.648206 0.099854 -0.278574
-0.345474 -0.708242 0.620505
0.670306 0.329829 -0.489106
-0.093799 0.808353 -0.098714
0.454143 -0.621348 0.576859
0.624454 -0.544174 -0.153719
0.064232 -0.179455 0.440175
-0.467139 -0.028167 0.594063
0.033081 0.456577 0.196651
-0.376458 0.462014 0.602303
-0.498962 0.062277 0.717810
0.425785 0.276729 -0.145497
0.438559 -0.483105 -0.264889
0.585516 0.345433 -0.343189
0.497845 0.286245 -0.205158
-0.609497 0.542440 0.517134
0.558002 -0.547275 -0.123715
0.621858 0.054523 -0.658338
0.523465 -0.445652 0.362176
0.542395 0.051487 -0.806425
0.815459 0.261890 -0.443736
0.657351 -0.748446 -0.125297
0.785177 0.107772 -0.406424
0.067193 0.313415 0.272273
0.656712 -0.635896 0.079526
0.621206 0.129676 -0.662467
-0.126029 0.411174 0.328099
0.030757 0.276709 0.338849
-0.008399 0.741276 0.057988
0.443523 -0.792979 0.735039
0.386254 0.257809 -0.135595
0.399513 0.006853 0.063878
0.393203 -0.156161 0.349786
-0.415189 -0.333812 0.352813
0.691711 -0.166709 -0.430819
0.665297 -0.118815 -0.651547
-0.628067 0.155273 0.583965
-0.609961 0.038470 0.544957
-0.023602 0.198030 0.405880
-0.044941 0.429728 0.125156
0.547567 -0.443630 0.345517
0.467111 0.011575 -0.140361
0.377261 -0.566012 0.642335
0.499525 -0.550840 -0.266358
0.440953 0.050815 -0.092835
-0.110026 -0.147046 0.436721
0.077860 0.876807 -0.129911
-0.410775 -0.174051 0.188638
0.715197 -0.846693 -0.003401
0.398514 -0.438865 0.572133
-0.266371 -0.098520 0.386249
0.209166 -0.398271 0.659784
-0.088595 -0.468618 0.659061
0.281978 0.264457 0.055731
0.442192 -0.114174 0.264552
0.228106 0.417340 0.102952
-0.702532 0.243679 0.498687
0.439605 -0.313512 0.397823
-0.468958 -0.042972 0.619876
0.266880 0.386921 0.012155
0.438960 -0.248169 0.383645
-0.477008 0.508350 0.538107
0.417794 -0.134768 0.150196
0.097288 -0.641983 0.738175
0.566354 -0.646752 -0.136708
-0.660275 0.291872 0.504228
-0.099766 0.667737 0.004178
0.353709 0.337137 -0.107522
-0.353062 0.220501 0.696513
-0.252061 -0.321149 0.508728
0.409391 0.391024 -0.295557
0.665614 -0.740187 -0.168016
-0.440264 0.385027 0.672354
0.376355 -0.238932 -0.122725
-0.264714 -0.705299 0.750212
-0.274557 0.478709 0.433291
0.296848 0.178019 0.254040
0.596661 0.107956 -0.244653
0.033278 -0.022915 0.466293
-0.582626 0.371601 0.566198
0.323059 0.190065 0.084034
0.020661 0.038394 0.394239
-0.431537 -0.788017 0.594835
-0.647779 0.266418 0.517051
0.003147 -0.662728 0.688895
0.456352 -0.419315 0.405853
-0.003339 -0.158010 0.503531
0.687061 -0.837178 0.289387
-0.151240 -0.701992 0.742632
0.500858 0.270911 -0.218847
-0.619787 0.102800 0.564618
0.541615 -0.686317 -0.218066
0.394532 -0.108304 0.272505
0.460547 0.363727 -0.302897
0.007530 0.765874 0.039611
-0.415162 -0.649463 0.542568
0.661779 0.300140 -0.600113
0.559466 -0.034565 -0.777320
-0.137964 -0.035343 0.382096
0.522373 -0.421961 -0.005590
0.254411 0.301338 0.197563
-0.402112 -0.637977 0.616229
0.618776 0.309340 -0.637048
-0.411311 0.506580 0.439710
0.329218 0.161469 0.088072
0.434855 -0.202822 -0.367797
-0.092968 0.734455 -0.054829
0.481155 -0.107267 -0.299621
0.518543 -0.091394 -0.242442
0.389372 -0.090539 -0.092298
0.085264 -0.724764 0.828738
0.483003 -0.033151 -0.787502
-0.503525 0.131750 0.788805
-0.322552 -0.020817 0.450696
-0.757956 0.344735 0.459987
0.578613 -0.777451 -0.261668
-0.403907 0.417037 0.626115
0.128481 -0.461269 0.613051
0.623003 -0.662516 0.338457
-0.121412 -0.636524 0.750697
-0.056906 0.397437 0.213223
-0.306300 -0.303131 0.417263
-0.089174 0.595797 0.008643
0.436056 0.012236 0.070415
0.410662 -0.648365 0.682113
0.275762 0.258756 0.022515
0.125949 0.558969 -0.000197
0.349343 0.024448 0.285161
0.465892 0.289988 -0.224377
0.500168 -0.304332 -0.030328
-0.340429 0.329517 0.684754
-0.115648 0.652774 -0.017975
0.191534 0.442290 -0.218274
-0.381022 -0.480859 0.520967
0.019004 -0.561368 0.725525
0.594342 0.285211 -0.722902
0.575755 -0.648870 0.433441
0.659752 -0.049566 -0.649050
0.641386 0.355557 -0.487629
0.586798 -0.150292 -0.391098
0.232379 -0.238105 0.509242
-0.346389 -0.369183 0.382388
-0.083373 -0.228531 0.528868
0.764712 0.038887 -0.562436
0.163939 0.324562 0.195578
0.461975 -0.553705 -0.283669
-0.400827 0.031948 0.588933
-0.401233 0.125903 0.684122
-0.414903 0.310677 0.719792
0.752510 -0.059624 -0.483020
-0.295039 -0.371899 0.515514
0.433324 -0.194448 -0.329723
0.038036 0.431017 0.181153
0.004174 0.425253 0.137169
0.079607 0.527305 0.118031
0.336151 0.173281 -0.034061
0.628596 -0.679999 0.421855
0.647204 0.255870 -0.424910
0.703601 -0.823556 0.054810
0.111747 0.162305 0.306151
-0.614991 0.462690 0.647225
0.601925 -0.618811 0.027593
-0.604543 0.311539 0.661812
0.151395 0.072953 0.310065
-0.120602 0.381931 0.307878
0.703975 -0.801146 0.004738
-0.234876 0.228730 0.543944
-0.165794 0.071657 0.415405
0.469772 0.203834 -0.026652
-0.654154 0.480260 0.505008
-0.447143 -0.612635 0.487920
-0.111262 -0.711181 0.753421
0.409019 -0.100194 -0.175179
0.151087 -0.313750 0.595519
-0.301374 -0.741705 0.674966
0.528701 -0.577816 0.110616
0.590981 0.045605 -0.675904
0.772226 0.043689 -0.517052
0.437517 -0.483340 -0.272453
-0.280983 0.032335 0.501916
0.292289 -0.597116 0.651060
0.585939 0.369522 -0.414133
0.545151 0.011965 -0.793301
-0.176856 -0.293027 0.515143
0.022659 0.370338 0.210786
0.589376 -0.008776 -0.216779
0.536266 -0.102874 -0.146364
-0.307861 -0.701826 0.746336
0.527316 -0.489221 -0.182263
0.692929 -0.864392 0.206572
-0.520541 0.194098 0.589832
-0.024527 -0.693639 0.812319
-0.421683 0.346811 0.676724
0.072179 -0.083560 0.494081
-0.176241 0.418661 0.314201
0.263812 0.409788 -0.077214
0.526471 -0.316731 0.199563
-0.479051 -0.624748 0.435158
0.683330 -0.045731 -0.404003
0.488577 -0.319039 0.267373
-0.197577 -0.127331 0.453682
0.127901 0.065065 0.356215
-0.266547 -0.706834 0.725518
-0.373136 -0.194365 0.258741
0.140199 0.089534 0.319655
0.503868 -0.537212 -0.201832
0.609036 -0.580084 0.147465
-0.567580 0.451074 0.584339
0.551369 -0.279623 0.107025
0.254009 0.009638 0.360739
0.011287 -0.437932 0.642293
0.753697 0.040504 -0.404586
0.477933 -0.248319 0.195394
0.511598 0.371140 -0.271932
0.590630 -0.133833 -0.631712
-0.442243 0.019459 0.643554
0.543186 -0.467034 -0.005476
0.419330 -0.610615 0.561199
0.346281 -0.584093 0.638777
0.455612 -0.006615 -0.184327
0.263296 0.110335 0.262847
0.635546 -0.669912 0.275376
-0.313562 -0.680527 0.643604
0.349706 -0.131820 0.282334
0.679542 -0.650388 0.283658
-0.095484 0.804316 -0.084685
0.219223 -0.678274 0.771102
0.498051 -0.663753 0.600238
-0.331336 0.156199 0.644849
-0.676565 0.051064 0.589583
0.379794 -0.010826 0.056396
0.038018 -0.145958 0.470261
0.404153 -0.017688 0.006694
0.274910 -0.090488 0.428020
0.018834 0.359045 0.250450
-0.427070 0.150766 0.670738
-0.683882 0.046964 0.513281
0.037352 0.419489 0.149938
0.258956 0.407374 -0.098477
0.802522 0.159271 -0.479934
0.471540 -0.646404 0.637929
0.286486 -0.000311 0.367062
0.324855 -0.192749 -0.278578
0.526323 -0.300006 0.151561
0.577214 -0.483605 0.060006
0.465488 -0.433054 0.335279
-0.191874 0.369893 0.454734
0.451691 -0.211238 0.237417
0.554431 -0.565883 0.295601
-0.160084 -0.271926 0.476460
-0.203873 -0.454969 0.667255
0.695618 -0.830653 0.210375
-0.209880 0.436838 0.392212
-0.420130 -0.024235 0.522001
0.347397 0.331264 -0.041768
0.565335 0.154665 -0.698021
0.677204 -0.801342 0.225892
-0.730263 0.005453 0.483459
0.094042 0.237799 0.262655
-0.076949 -0.145367 0.463749
0.096089 0.016322 0.392757
0.742744 -0.104598 -0.549914
0.564090 -0.467899 0.196772
-0.519162 -0.794957 0.476118
0.539082 -0.569494 0.549059
0.670165 -0.931468 -0.068806
0.673513 0.349780 -0.498435
-0.092788 0.502684 0.135265
-0.323833 -0.025859 0.417269
0.577050 -0.477892 0.276850
0.528405 -0.202305 -0.433507
0.479839 -0.165332 0.030523
-0.412001 -0.554099 0.502976
0.539742 0.065141 -0.169073
0.229258 0.037655 0.354318
0.668262 0.228750 -0.279463
-0.113118 0.443506 0.086439
0.549607 0.005715 -0.222161
0.802716 -0.008117 -0.331330
-0.196607 -0.377918 0.618961
-0.514760 0.150555 0.638562
-0.692879 0.439831 0.437088
0.773707 -0.137317 -0.494981
0.665693 -0.175156 -0.661690
0.225683 -0.356281 0.595229
-0.355961 -0.753415 0.669168
0.049299 0.364174 0.259602
0.635077 0.285968 -0.414531
-0.066187 0.175177 0.419940
0.406563 0.088783 0.129188
0.359913 -0.163980 -0.250621
0.349505 -0.347777 0.450329
0.436207 -0.235828 -0.120193
-0.065996 -0.337416 0.575561
0.162694 0.620783 -0.123601
-0.708162 0.488439 0.459566
0.434101 0.334395 -0.190171
0.776844 0.104846 -0.377222
0.101007 -0.535066 0.740725
-0.609299 -0.055677 0.585477
0.623889 -0.162388 -0.367322
0.413500 -0.360485 -0.284026
-0.224596 -0.515312 0.587801
-0.680660 0.230731 0.391755
0.647429 -0.493458 0.150442
0.502044 -0.357964 0.288836
-0.420367 -0.805064 0.577271
-0.588507 0.083871 0.667726
0.512741 -0.038353 -0.188638
0.580773 -0.545922 0.444880
0.670132 -0.896928 -0.210601
0.246562 0.240060 0.195860
-0.087742 0.565838 0.019673
0.309730 0.165130 0.194063
-0.816707 0.251253 0.368392
-0.067279 0.129404 0.406948
-0.225717 -0.398338 0.566978
-0.477461 0.112489 0.705368
-0.337825 -0.112347 0.284598
0.573849 0.295512 -0.703854
0.465799 0.121182 -0.055722
0.567985 -0.874890 -0.293969
-0.286440 0.039343 0.473092
0.409649 -0.442888 -0.292758
0.184582 0.389463 -0.141886
0.075595 -0.407543 0.609112
0.493689 -0.423390 -0.144892
0.474760 -0.198797 0.141936
0.072464 0.844019 -0.104676
0.620537 0.039746 -0.662208
0.636274 0.267709 -0.412250
0.564328 -0.516597 0.254811
0.682211 -0.015610 -0.303805
0.674565 -0.680732 0.189031
0.544239 -0.358680 0.076414
0.385038 0.298476 -0.008805
-0.172646 0.351936 0.430159
-0.273912 -0.252134 0.333506
-0.417529 0.047581 0.615875
0.528976 -0.380951 0.176818
0.369295 0.013499 0.022200
0.625631 0.281311 -0.257080
0.467734 -0.137570 -0.038601
-0.779959 0.363778 0.426783
-0.130625 0.199113 0.388993
-0.653896 0.161708 0.502974
-0.323829 -0.132008 0.240092
-0.402251 -0.576209 0.497796
0.592339 -0.830065 -0.207527
0.290252 0.287273 0.158886
0.082075 -0.129082 0.504550
-0.080136 0.022219 0.378588
0.616869 -0.156900 -0.663588
-0.632893 0.099551 0.619353
-0.278996 -0.603371 0.639406
0.396665 -0.187277 -0.133266
0.703967 0.131131 -0.571400
-0.348388 -0.732712 0.655191
-0.767608 0.071036 0.431289
0.436241 -0.198947 -0.229966
0.601415 -0.734144 -0.033634
0.058917 0.824020 -0.217874
-0.376346 0.030479 0.484265
0.087669 -0.413554 0.617462
0.765153 0.258006 -0.380110
0.524545 -0.687839 0.607728
-0.644967 0.011323 0.482804
0.342371 -0.066188 0.308811
0.174496 -0.632479 0.725348
0.677974 -0.820664 -0.113941
0.461152 -0.514986 -0.164196
-0.618164 0.071306 0.650179
0.394481 0.063636 0.083306
0.429788 -0.534707 -0.275981
-0.678710 -0.015915 0.594543
0.601157 0.015744 -0.706885
-0.034166 0.042118 0.368358
0.115325 -0.055736 0.406399
0.684741 -0.169685 -0.501645
0.735723 0.027653 -0.537282
-0.315142 -0.513417 0.594443
0.254828 0.341856 0.060253
0.080485 -0.467253 0.688890
-0.561695 0.129951 0.634718
0.782347 -0.145352 -0.500511
-0.276755 0.261272 0.559803
-0.244801 0.004847 0.466040
0.315206 -0.146326 0.404419
-0.442453 0.295802 0.680850
-0.430276 -0.554319 0.369959
0.713788 0.082758 -0.257642
-0.018700 1.004740 -0.159954
0.417136 -0.195065 -0.110581
0.601784 0.086629 -0.202235
0.795913 0.119572 -0.536440
0.410558 -0.185054 -0.351273
0.689200 -0.149243 -0.526912
-0.564398 0.363425 0.619475
0.600461 -0.608521 0.337894
-0.134674 0.220287 0.437648
-0.012452 -0.269115 0.530658
0.567559 -0.516809 -0.094402
0.629132 -0.798901 0.487741
-0.485333 -0.722902 0.507152
0.003450 0.035840 0.379961
-0.778474 0.364851 0.460147
-0.171407 0.235715 0.517189
0.454867 -0.248828 -0.147332
-0.306494 -0.320174 0.452551
0.810384 0.184643 -0.406716
0.580268 -0.766314 0.650543
0.386046 -0.582100 -0.359465
0.695453 -0.771791 0.175715
-0.289983 -0.482173 0.552899
-0.076511 -0.711841 0.779911
0.629627 0.070449 -0.235095
0.615912 0.084292 -0.262831
0.262390 0.385357 -0.113775
-0.212573 0.190213 0.526763
-0.200273 0.191578 0.542005
0.494314 -0.179687 -0.532119
0.706537 -0.830767 -0.007334
-0.095946 0.038670 0.378779
-0.273167 -0.267859 0.470698
0.354132 -0.799844 0.777246
0.762116 0.193731 -0.430861
0.414899 0.263629 -0.075399
0.437104 -0.679670 -0.322217
0.440361 -0.807916 0.776886
0.326953 -0.082772 0.318912
0.467675 -0.553110 0.641461
0.646324 -0.717818 0.375502
0.385222 -0.228833 0.431053
0.550998 -0.777064 -0.217202
0.471551 -0.522035 0.552281
0.544495 -0.628286 0.569870
-0.125157 -0.409135 0.598805
0.088019 -0.117628 0.486797
-0.206491 -0.731249 0.791517
0.453377 -0.123006 -0.010836
0.039388 0.143365 0.365389
0.474806 -0.190443 0.263078
0.185552 0.522511 -0.130054
0.058873 0.604446 0.049932
0.612518 -0.450011 0.167627
0.068824 -0.649706 0.688359
0.648730 0.101851 -0.624450
-0.247082 -0.447765 0.614067
0.571494 -0.793590 0.543847
0.630584 -0.568947 0.214061
-0.668838 0.471422 0.427573
0.440541 -0.350245 -0.149600
0.117829 0.522372 0.069715
0.254537 0.398936 -0.041458
-0.543361 0.399316 0.644994
-0.564457 0.128704 0.653589
0.352594 -0.034036 0.233311
0.147104 -0.700546 0.808217
-0.303796 0.180556 0.599549
-0.157529 0.229638 0.511152
0.497448 -0.228178 0.013074
-0.695431 0.294891 0.594246
0.521471 -0.681127 -0.226438
0.378796 0.146771 -0.013484
-0.380334 -0.234738 0.407971
-0.039377 -0.492347 0.664758
-0.118094 -0.274978 0.520100
0.071248 0.879578 -0.184052
0.398546 -0.303730 0.351344
0.552600 -0.448077 0.219475
0.072995 0.382959 0.212423
0.606714 -0.919704 -0.234734
0.481235 0.182868 -0.122579
0.663851 -0.135926 -0.419894
-0.089187 -0.344425 0.592764
0.386119 -0.466111 -0.298507
-0.044197 0.363586 0.368780
-0.227503 0.050588 0.463256
0.432638 -0.026974 -0.128049
0.271205 -0.349711 0.604407
0.775758 0.079614 -0.285528
0.441203 0.098188 -0.057886
-0.216310 0.187384 0.510046
0.134208 -0.209194 0.546882
0.131022 0.035014 0.368981
-0.427195 -0.441660 0.388326
-0.148064 0.084839 0.471314
0.539227 -0.324861 0.101080
-0.108325 0.651185 0.023454
0.427425 -0.448214 0.555831
0.124631 -0.594270 0.733803
-0.048815 0.594555 0.028791
0.693089 -0.081909 -0.410557
0.652610 -0.157790 -0.669378
0.206645 -0.518269 0.640990
0.025301 0.397534 0.202956
-0.674506 0.437689 0.512249
0.625274 -0.665326 0.515121
0.397227 -0.478806 -0.301719
0.161794 0.026682 0.419129
0.256949 0.373473 0.051292
0.703890 -0.781688 0.191316
-0.415618 0.079775 0.541451
0.198833 0.436241 -0.159181
-0.019331 0.354344 0.266764
-0.525867 0.012682 0.662912
0.177668 0.455327 -0.109748
0.544650 -0.925490 -0.367814
0.772359 -0.801008 0.215537
0.020062 0.177793 0.383306
0.485387 -0.178355 -0.247314
0.015528 -0.470854 0.648538
-0.217773 -0.238578 0.466118
0.127662 0.277807 0.176687
0.204613 -0.226918 0.624703
-0.097216 -0.130547 0.436725
0.059700 0.800149 -0.061596
-0.122797 -0.500356 0.703200
0.557447 -0.593725 -0.170231
0.335733 0.231802 0.031645
0.512229 -0.519690 0.478130
0.525265 -0.044849 -0.190952
-0.088822 -0.780959 0.736580
0.485375 -0.245702 -0.440334
0.386352 -0.421128 0.581732
0.658205 -0.147546 -0.384226
0.182819 -0.199830 0.524370
0.754596 0.063115 -0.517469
0.736579 0.057872 -0.523761
0.510111 -0.790144 0.622741
0.486872 0.229163 -0.207354
0.551905 -0.576627 -0.081964
0.341796 -0.361439 -0.337537
-0.761784 0.389949 0.444357
-0.310409 -0.018541 0.479707
0.410464 -0.129433 -0.123326
0.209423 0.495860 -0.085896
-0.630748 0.549905 0.549437
0.262591 0.059493 0.245854
0.383683 -0.186945 0.039506
0.048358 -0.341205 0.595159
-0.183385 0.008782 0.413861
-0.308183 0.483126 0.432305
0.501157 -0.254478 0.175305
0.229672 0.131609 0.284063
-0.058656 0.005792 0.392346
0.294287 0.271707 0.094270
0.652443 0.173272 -0.272951
-0.352342 -0.662560 0.584976
-0.345368 -0.013159 0.471365
-0.075997 -0.471298 0.601834
0.000668 0.180954 0.344851
-0.268106 -0.421923 0.478526
0.503427 -0.955459 -0.340373
-0.356923 -0.623423 0.557978
0.642258 0.176111 -0.203841
0.189313 0.092117 0.287699
0.532817 0.331642 -0.363969
0.402901 -0.111341 -0.173199
0.554444 -0.462555 0.088214
0.566755 -0.439487 0.350518
0.494068 -0.279977 -0.057476
0.327781 -0.556635 0.657778
0.503656 0.033560 -0.184490
-0.445102 -0.017512 0.583660
-0.407949 0.307457 0.692908
0.390991 -0.354093 0.491969
0.324507 0.134521 0.062470
0.554697 -0.630125 -0.165168
-0.109057 0.456087 0.113331
-0.229986 0.332387 0.591520
-0.254187 0.280055 0.589719
0.641980 -0.073396 -0.681346
-0.241079 -0.682969 0.685267
0.595788 -0.894106 -0.111165
0.555368 -0.376502 0.172373
0.011119 0.852644 -0.139760
0.042937 0.847467 -0.118210
-0.056906 0.906466 -0.120126
0.485196 0.411761 -0.407620
0.687268 -0.181976 -0.449633
0.258843 -0.677003 0.746792
-0.506148 -0.691983 0.468671
0.448441 -0.177325 0.037381
0.506665 -0.323738 -0.185350
-0.476327 -0.739467 0.607126
0.744051 0.182722 -0.517100
0.543773 -0.000007 -0.101891
0.631302 -0.110498 -0.370249
-0.507332 0.056456 0.662783
-0.230144 0.129888 0.506479
0.641389 0.179900 -0.647440
-0.061458 0.824818 -0.049372
0.684441 0.336476 -0.686440
0.494135 -0.430680 -0.159413
0.649447 -0.756747 -0.102023
0.567807 -0.941700 -0.251573
0.640319 -0.762098 0.353696
0.427445 -0.506845 -0.327260
0.110296 0.572985 -0.185135
0.615017 -0.220631 -0.357767
0.581878 -0.526849 0.365976
0.466720 -0.584047 -0.258945
0.088399 0.568571 0.133063
-0.215443 -0.037983 0.353077
-0.223224 -0.558815 0.602447
-0.066668 0.612672 0.053421
-0.145397 0.403730 0.390328
0.643653 -0.229711 -0.620297
0.659466 -0.574311 0.130065
0.090396 -0.079393 0.510119
0.010360 0.563593 0.074088
0.716658 0.183120 -0.577974
0.686299 -0.774658 0.375307
-0.233364 0.115585 0.493755
0.818846 -0.076392 -0.513511
-0.122701 -0.116649 0.421239
0.496563 -0.547635 -0.269591
-0.488432 -0.447671 0.366429
0.663772 -0.101317 -0.593103
-0.698022 0.291537 0.519084
0.509931 -0.616359 0.490989
0.055355 -0.060612 0.461495
0.665983 -0.121822 -0.352894
0.549512 -0.784391 -0.303211
0.345566 0.249946 0.020668
0.006808 -0.094420 0.479509
0.642694 -0.030239 -0.315489
-0.326445 -0.035068 0.417215
0.350029 0.016112 0.122060
0.083908 0.164835 0.269047
-0.447869 0.282750 0.698044
0.499894 -0.674701 -0.233814
0.052860 -0.256482 0.520851
-0.412381 -0.470236 0.370148
0.554532 0.292875 -0.303216
0.186027 0.295613 0.228701
0.494567 -0.364014 0.182250
0.623135 -0.625215 0.294800
-0.213309 0.292331 0.531182
0.367542 0.061007 0.054916
0.244759 0.486909 -0.044077
0.277909 0.167425 0.032225
0.539384 -0.167786 -0.366874
0.309490 -0.738856 0.752446
0.403727 -0.096600 0.125930
-0.280390 0.520892 0.415591
0.672954 -0.920454 -0.121304
0.566622 -0.339443 0.044084
0.424523 -0.464940 0.497152
0.710896 0.304462 -0.638631
-0.778671 0.009211 0.439117
0.493265 -0.439057 0.442218
-0.251920 -0.273867 0.421592
-0.064397 0.136811 0.370059
-0.134952 0.078323 0.390806
0.388932 -0.490153 0.598779
0.691252 -0.167755 -0.413765
-0.238223 0.468917 0.439938
0.376903 0.040446 0.177037
0.660636 -0.611413 0.127280
0.788793 0.001138 -0.431106
-0.421155 -0.550348 0.521638
0.464612 0.225921 -0.169122
0.114002 0.576920 0.024821
0.502594 0.382263 -0.407143
0.767780 -0.844298 0.020590
0.362364 0.188403 0.145351
-0.392586 -0.281899 0.267975
0.400792 0.059124 -0.097086
0.194575 0.104942 0.278213
0.065526 -0.694979 0.748048
-0.300585 -0.732508 0.648676
0.475998 0.038020 -0.168045
-0.670477 0.220592 0.541487
0.484867 -0.864510 -0.332090
-0.285500 0.466125 0.448770
0.555491 -0.107923 -0.372209
0.769969 -0.042685 -0.536481
-0.581678 0.363796 0.668775
0.410566 0.026294 -0.077444
0.546023 0.049698 -0.756171
0.561643 -0.815780 -0.312077
-0.243236 -0.659540 0.723565
-0.085887 0.453452 0.292350
-0.597115 0.168256 0.563218
-0.014156 0.429466 0.197220
-0.549654 0.481841 0.581315
0.523547 -0.095154 -0.757135
-0.396351 0.332581 0.708044
0.091433 0.528917 0.095519
0.350769 0.163866 0.013946
-0.032728 0.422500 0.243293
0.136362 0.452758 0.079821
-0.034731 0.237460 0.319923
0.585341 0.334538 -0.300783
0.541044 -0.309653 0.084149
-0.204686 -0.448388 0.579349
0.803897 0.021746 -0.438591
-0.431737 -0.595177 0.460290
0.433726 -0.828091 0.619189
-0.352391 0.212079 0.649294
-0.206750 -0.532827 0.661630
-0.583706 0.017614 0.597989
0.231579 -0.054376 0.398806
0.288804 -0.501934 0.668142
0.169205 -0.442306 0.644010
-0.623004 0.266582 0.632166
-0.431189 0.039574 0.610819
-0.121168 0.795405 -0.037156
0.445447 -0.445382 -0.293343
0.347398 0.124462 0.187975
-0.040433 -0.380770 0.655594
0.129060 0.652153 -0.209140
-0.488270 -0.772180 0.625445
-0.252253 0.484575 0.369266
-0.434474 0.046227 0.680402
0.136360 -0.648779 0.785979
-0.742223 0.298089 0.448770
0.503261 -0.293009 0.052296
-0.204647 -0.613292 0.649165
0.131358 0.564804 0.013948
0.361362 -0.006458 0.186220
0.705677 -0.864157 0.243083
-0.542709 -0.835239 0.546485
0.383432 -0.047087 0.085046
0.191846 0.492638 -0.137185
0.691580 -0.638250 0.098841
0.638319 -0.633569 -0.030191
0.401690 -0.107903 -0.018526
-0.432373 0.397098 0.700518
0.404562 -0.793583 0.715428
0.155491 -0.311164 0.602533
-0.105094 0.653441 -0.035972
0.167113 -0.125396 0.372116
-0.162876 -0.041664 0.438884
0.110577 -0.276628 0.530747
0.566822 -0.573457 0.324742
-0.522777 0.380924 0.628252
0.702767 -0.756465 0.053110
0.304513 0.284915 0.061856
0.766950 -0.922141 0.229628
0.662548 -0.064261 -0.619100
-0.342574 0.477578 0.487701
0.132306 -0.070260 0.462123
0.511298 0.340162 -0.231066
-0.229373 0.204400 0.550954
0.220873 0.379658 0.125419
0.565368 -0.605508 -0.196016
0.330706 -0.224868 -0.325726
0.625213 -0.014789 -0.675165
-0.458734 -0.679345 0.507825
0.459755 -0.801634 0.672252
0.015365 0.409703 0.200696
0.552127 -0.784223 -0.296425
-0.155061 0.084008 0.396150
-0.334255 0.197338 0.600234
-0.084374 0.441256 0.248059
-0.374034 0.502214 0.554590
0.549726 -0.432963 -0.139324
0.470861 0.324635 -0.314512
0.590425 -0.973964 -0.311636
0.289759 -0.571407 0.714546
0.566595 0.202054 -0.828141
0.257832 0.304553 0.153600
0.126192 -0.710121 0.842900
-0.365996 -0.646890 0.625318
0.199699 -0.236603 0.475696
0.548426 -0.361795 -0.095859
-0.151281 -0.016861 0.394975
0.170889 -0.081214 0.496127
0.190485 0.477951 -0.077631
0.637152 -0.574437 0.226361
0.701771 -0.147262 -0.463645
0.234750 0.203755 0.193321
0.482181 0.321117 -0.357525
-0.079026 -0.235247 0.534249
0.586227 -0.688404 -0.174238
-0.426033 0.466543 0.500994
0.439018 -0.185181 -0.398752
0.672934 0.110981 -0.637931
-0.394296 -0.686740 0.583113
0.726506 0.188713 -0.567967
0.353056 0.197449 0.159273
0.191761 0.485059 -0.176604
0.649048 -0.468126 0.168986
-0.320812 0.470966 0.461981
0.249053 0.117606 0.263688
0.493014 -0.274648 0.468184
-0.184413 -0.066609 0.399994
-0.422026 -0.457829 0.409421
0.507169 -0.502891 -0.218117
0.627946 -0.458923 0.173016
0.564691 -0.564860 -0.142470
-0.414925 -0.329187 0.375294
0.617813 -0.803865 -0.139766
0.431102 -0.164514 0.184709
0.348895 -0.244398 0.436905
-0.423303 0.427917 0.658084
0.032099 -0.348472 0.534162
0.396583 0.281867 -0.112783
0.666263 0.233794 -0.332881
0.526021 0.197117 -0.114514
-0.439587 -0.562392 0.467019
0.764459 -0.115165 -0.474896
0.621401 -0.159936 -0.401202
0.420451 -0.155634 0.211309
-0.145741 -0.635556 0.675540
0.523610 -0.378013 0.083865
0.352239 -0.176622 0.441522
-0.170646 0.243244 0.540413
0.122730 -0.000824 0.404124
0.471512 -0.544238 0.548217
0.561532 0.331668 -0.432450
-0.223653 0.472134 0.357669
0.420081 -0.636721 0.647085
-0.024529 -0.534251 0.660787
0.555096 -0.637093 -0.188201
-0.073542 0.471577 0.172756
-0.000587 0.269032 0.303415
0.452027 -0.103081 -0.113302
-0.484851 -0.503324 0.430999
-0.332015 -0.060529 0.362424
0.460335 -0.086805 0.172037
0.353136 -0.024047 0.283653
0.433463 -0.194988 0.077416
-0.644561 0.020045 0.534386
-0.552117 0.477725 0.464993
-0.194828 -0.807600 0.803792
0.441599 -0.398254 0.396147
0.611426 -0.006934 -0.266971
0.649290 -0.588249 0.033881
0.557649 -0.868582 -0.313863
-0.607028 0.067928 0.566339
0.708179 -0.897877 0.041094
0.578667 -0.811162 -0.269476
0.434543 -0.121740 -0.034506
0.665296 -0.662389 0.194305
-0.067577 -0.404759 0.632547
0.136848 0.493638 0.057693
-0.155527 0.083617 0.459124
-0.170907 -0.352782 0.551084
0.381888 -0.708781 0.699657
-0.463345 0.031083 0.696001
0.647334 -0.699300 -0.081952
0.442767 -0.157495 0.223887
0.405990 -0.164981 -0.242180
0.463353 0.137447 -0.070827
-0.363412 0.096815 0.673707
0.662447 -0.070348 -0.308541
0.758522 0.197227 -0.396542
-0.281232 -0.550573 0.636805
0.611559 -0.665153 0.388547
0.414864 -0.040735 0.104788
0.139539 -0.147324 0.450836
0.467812 -0.580032 0.585174
0.085512 -0.220640 0.533018
-0.657919 0.002242 0.514368
-0.296727 -0.728208 0.705717
0.255142 0.230382 0.219538
-0.034360 -0.566807 0.694830
0.094559 0.716941 -0.068812
-0.175701 0.300554 0.527547
-0.583999 0.029401 0.619689
0.470534 0.103628 -0.135628
0.392182 -0.169798 0.369767
-0.268853 -0.143693 0.385315
0.342231 0.072574 -0.011674
-0.733051 0.042937 0.429396
-0.041662 0.241275 0.322074
0.140889 0.663572 -0.102983
-0.243202 0.461120 0.471392
-0.325010 -0.434898 0.522890
0.530129 -0.428970 0.112849
0.235918 -0.189838 0.441776
0.039149 -0.009525 0.412584
0.580874 -0.459742 0.337673
0.690405 -0.016610 -0.288595
0.580109 -0.657416 -0.174481
0.372120 0.080902 -0.007068
0.826349 0.092067 -0.431033
0.012505 -0.718814 0.820659
-0.474344 -0.495170 0.374501
0.280053 0.286129 0.130025
0.335597 -0.664696 0.752800
-0.277086 -0.676161 0.696889
0.524478 -0.371145 0.258101
-0.757021 0.113268 0.444225
-0.403621 0.355327 0.679723
0.580789 0.168432 -0.728606
0.061852 -0.434841 0.633604
-0.117348 0.578822 0.033639
0.474674 -0.484075 0.449996
-0.386151 -0.301087 0.273411
-0.374082 0.372990 0.572076
0.428636 -0.337396 -0.226864
-0.459599 0.054372 0.611525
-0.238815 -0.029843 0.413120
0.160643 -0.650502 0.768023
-0.307644 -0.628864 0.588965
0.491902 -0.300492 0.252163
0.534989 -0.173384 -0.722387
0.120013 0.767052 -0.123391
0.109233 -0.360499 0.631636
0.226535 0.511379 -0.014650
0.147893 0.577430 -0.120324
-0.201861 0.309905 0.443548
0.264318 -0.246347 0.490980
0.644889 -0.577044 0.332746
0.464408 -0.630089 0.618857
-0.483658 0.525251 0.587055
-0.379297 0.057703 0.568562
0.733154 0.233568 -0.565051
0.475803 -0.338601 0.369029
-0.412522 -0.795286 0.726840
-0.252603 -0.080220 0.364321
-0.100810 -0.367156 0.607775
0.353561 -0.390954 0.489359
-0.193016 0.202571 0.489644
0.351420 0.052354 0.265296
-0.273897 0.114331 0.566401
-0.721337 0.036847 0.470756
0.388022 -0.391285 0.539188
0.779859 0.238686 -0.464800
0.695445 -0.190957 -0.555126
0.556074 -0.689778 0.521796
-0.049545 -0.229369 0.488743
0.659973 0.030048 -0.684904
0.235485 0.510913 -0.035204
0.010616 -0.600359 0.748363
-0.253586 -0.148014 0.419650
0.306925 0.177185 0.096832
-0.409375 0.244321 0.666117
0.273396 -0.612712 0.776085
0.030409 0.137726 0.376195
-0.121960 0.461045 0.152407
-0.468706 0.103779 0.747941
-0.023760 0.276360 0.359962
0.674177 -0.893789 -0.091754
0.601942 -0.076269 -0.674441
-0.263430 0.168388 0.638412
0.617156 -0.819235 0.021664
0.459700 0.162910 -0.105945
0.446830 -0.248737 0.253132
0.106852 0.732010 -0.134574
-0.050264 0.014248 0.376797
-0.258158 -0.522621 0.565185
0.462732 -0.064957 -0.165437
-0.412407 -0.425284 0.446370
0.664381 -0.643262 0.257320
0.240692 0.470111 0.006538
-0.155858 0.008262 0.394228
-0.017475 0.554514 0.077872
0.283737 -0.301740 0.499385
0.671797 0.153005 -0.548320
0.007246 0.608409 0.077403
0.432650 0.087913 -0.076645
0.674138 -0.755677 0.193111
-0.376529 0.219694 0.757851
-0.097893 -0.581091 0.745274
0.591931 -0.911835 -0.246329
-0.149499 -0.540769 0.724541
0.698857 -0.838582 -0.084956
-0.229565 -0.354768 0.498255
0.518350 -0.395927 0.152516
-0.275713 -0.321249 0.460295
0.576828 0.140240 -0.220495
-0.072646 0.903049 -0.099350
-0.354686 -0.347007 0.415539
0.433213 -0.105152 -0.074169
0.409011 -0.221626 0.378943
0.594141 -0.079043 -0.322835
-0.486944 -0.850577 0.553119
0.653985 -0.516911 0.260385
0.204364 -0.016344 0.367771
-0.540772 0.519951 0.544040
-0.118857 0.699930 -0.022243
0.766086 0.067547 -0.334803
0.562244 -0.375700 0.003499
0.685548 -0.154864 -0.471636
-0.125695 -0.176688 0.455436
-0.277128 -0.718784 0.696324
0.582974 -0.506149 -0.057374
-0.346469 -0.062150 0.426288
-0.457504 0.477557 0.561768
-0.164861 -0.475646 0.650037
0.398145 -0.369117 0.492270
-0.307212 -0.652853 0.631222
0.565786 0.328544 -0.386818
-0.129416 0.340311 0.460851
0.250321 -0.134500 0.483944
0.456562 -0.062721 0.117813
-0.377485 -0.127860 0.212949
-0.004878 0.191207 0.357711
0.196951 0.503888 -0.212709
-0.345634 -0.620283 0.565393
0.610652 -0.709732 -0.095662
0.413641 -0.267681 -0.141906
0.576908 -0.010189 -0.141153
0.561896 -0.017797 -0.636236
0.534040 -0.012452 -0.703649
0.533734 0.262456 -0.178685
0.478247 -0.712713 -0.340011
-0.127801 0.149819 0.453017
0.069447 0.349773 0.260961
0.047507 -0.329834 0.586400
0.552528 -0.115541 -0.285780
0.216692 -0.651018 0.792426
0.545480 -0.761042 -0.195267
0.748221 0.088071 -0.566741
0.496905 -0.189202 0.031756
-0.763666 0.267103 0.447377
0.751079 0.153027 -0.303775
0.592466 -0.176394 -0.454838
0.280077 -0.501406 0.642395
0.705251 -0.013327 -0.608312
0.514314 -0.364603 0.071058
-0.499696 0.131458 0.708367
-0.345531 -0.497613 0.546071
0.583179 -0.748253 -0.182675
0.705580 -0.055244 -0.455563
0.337564 0.161360 0.074621
0.454450 -0.212572 -0.030307
-0.441586 -0.329371 0.236059
0.669853 -0.808950 0.311588
-0.274460 -0.421052 0.567330
-0.555943 0.164602 0.628422
0.048147 0.918151 -0.123479
-0.099867 -0.304492 0.579715
0.784224 0.057757 -0.536908
-0.011611 -0.185853 0.500845
-0.568374 -0.756891 0.504733
0.510250 -0.123641 -0.314758
0.196144 0.385963 0.104476
-0.150103 -0.357717 0.537234
0.507131 -0.189014 0.006181
-0.280375 -0.145649 0.359130
0.459950 -0.122198 0.054167
0.765588 0.321107 -0.551610
-0.412556 -0.699359 0.557204
0.529376 -0.638375 0.506454
0.397240 -0.211719 0.416427
0.736621 0.149455 -0.561423
-0.326372 -0.521884 0.638368
0.507360 -0.315058 0.366960
0.435716 0.284234 -0.220445
-0.230175 -0.348562 0.554136
-0.051871 -0.029605 0.509076
-0.004716 -0.022397 0.433562
0.462052 -0.558828 0.460022
0.515167 0.099367 -0.834189
0.714551 -0.712220 -0.067459
-0.137956 -0.338039 0.514798
0.223034 0.369766 -0.104449
0.710790 0.325902 -0.498610
0.617414 -0.388636 0.065577
0.380961 0.127287 0.028733
-0.138440 -0.627536 0.777142
0.249441 0.240671 0.181599
0.063563 0.256038 0.237451
-0.146067 -0.125946 0.442671
-0.628879 0.108700 0.598425
-0.157098 -0.194365 0.503128
-0.768357 0.211809 0.407361
0.341383 -0.359871 0.566383
0.581428 -0.753636 -0.081782
-0.547525 0.504989 0.604139
0.782725 0.264496 -0.488866
0.234748 -0.522303 0.686533
-0.393116 -0.450170 0.359931
0.682071 -0.023090 -0.283892
-0.264984 0.154974 0.542285
0.364349 -0.165419 0.371021
0.065762 0.499536 0.106937
0.028517 0.481484 0.147347
-0.221690 -0.769680 0.764630
0.609339 -0.000977 -0.269935
0.445443 -0.228971 -0.016188
0.464683 0.175849 -0.099616
0.371124 0.265270 -0.053022
0.056794 0.338461 0.225388
-0.260548 -0.722350 0.722578
-0.610389 0.533725 0.554294
0.041478 -0.135730 0.491982
-0.300326 0.391419 0.498945
-0.256561 -0.646010 0.692678
0.406782 -0.502959 -0.319568
0.253946 0.119000 0.218771
-0.073439 0.224962 0.393044
0.699060 -0.003772 -0.394375
0.692534 0.149212 -0.699128
-0.483662 0.073449 0.678815
-0.300446 0.033597 0.496763
0.589444 0.004961 -0.201068
0.329532 -0.045991 0.281398
0.606895 -0.007168 -0.251804
0.611286 -0.604782 0.428203
0.208350 -0.470302 0.666544
-0.216904 0.030168 0.433636
0.113788 -0.358747 0.570272
-0.094724 -0.596622 0.720654
0.723936 -0.772655 -0.002501
-0.244861 -0.500176 0.558294
-0.571888 0.437584 0.605011
0.441179 0.050700 -0.066597
0.478032 -0.341770 0.285324
0.439203 -0.575123 0.590762
0.366064 -0.439670 -0.319288
0.670150 -0.739187 0.202875
0.537548 -0.403834 0.004601
0.095673 0.718257 -0.269493
-0.051804 0.793871 -0.018258
-0.145280 0.495504 0.095946
0.361848 -0.110395 0.370035
0.030520 0.519250 0.087566
0.292272 0.348042 0.067246
0.124846 -0.388540 0.588186
0.238826 0.379988 0.118764
0.696606 0.163117 -0.419920
0.215026 0.188643 0.277722
0.686367 -0.612714 0.164203
0.638882 -0.678155 0.104378
-0.003480 0.212477 0.355065
0.149356 -0.274810 0.517976
-0.401968 0.314847 0.724572
0.522613 -0.064062 -0.233868
0.429990 -0.090421 0.260898
0.475553 -0.411408 -0.138421
0.588994 -0.213008 -0.653589
0.655976 -0.154594 -0.398612
-0.504397 -0.562848 0.383934
0.253777 0.487554 -0.012473
-0.419692 -0.598046 0.513919
0.517202 -0.670080 -0.252507
0.065115 0.687675 0.018254
-0.113648 -0.673166 0.717997
0.612184 -0.048614 -0.286280
0.065424 -0.576628 0.753172
-0.350133 -0.611161 0.659173
0.020029 -0.613401 0.740684
0.468940 0.064864 -0.841225
0.453364 -0.233072 0.103849
-0.639769 0.120530 0.525973
0.151498 0.637834 -0.175144
-0.387446 0.216981 0.677707
0.533172 -0.449720 0.131233
-0.046489 0.056934 0.338238
0.721331 -0.853734 0.086441
0.386152 -0.614688 -0.314781
-0.041202 0.823502 -0.079643
0.677806 -0.152957 -0.636189
-0.502304 -0.004907 0.545179
-0.352087 -0.198205 0.381524
-0.142298 0.264215 0.486060
-0.375216 0.344223 0.637740
0.183449 -0.651202 0.776976
-0.573108 -0.030229 0.617800
0.038361 -0.174496 0.466029
0.119762 0.703964 -0.185939
-0.318279 -0.220496 0.289139
0.693927 -0.040255 -0.556948
0.500742 -0.714218 -0.339842
0.240485 -0.012492 0.336363
-0.052444 -0.094396 0.450425
0.434557 -0.115413 -0.255078
0.503030 0.054345 -0.783416
0.569934 -0.563267 0.333057
0.272602 -0.263547 -0.291711
0.616504 -0.604877 0.145664
0.609750 -0.553956 0.306992
0.014623 -0.343953 0.598487
0.725064 -0.822996 -0.022625
-0.312932 -0.474264 0.497806
0.037644 -0.438192 0.599153
0.437276 -0.048851 -0.149444
0.005174 0.374966 0.319447
0.521670 -0.246625 0.286453
0.428950 -0.502232 -0.269159
-0.089769 -0.775898 0.768578
0.304393 -0.308215 -0.286597
-0.795733 0.132602 0.449518
0.730511 -0.697128 0.203424
-0.150178 0.107956 0.406212
0.222248 -0.193789 0.504394
0.221724 0.065866 0.278469
0.632162 -0.704819 -0.051659
-0.061079 -0.417497 0.576868
0.001883 0.837233 -0.131567
-0.011875 -0.394856 0.625575
0.143735 -0.078716 0.504190
0.092462 0.463045 0.141481
0.713866 -0.088948 -0.523990
0.197492 -0.718718 0.779103
-0.536559 -0.006533 0.617412
-0.480414 0.031164 0.686858
0.067064 0.894922 -0.136340
0.303790 -0.053052 0.345936
0.666278 0.017686 -0.240515
-0.514126 0.283196 0.632348
-0.635091 0.482890 0.440738
-0.659988 0.460688 0.523333
-0.037105 0.324563 0.319940
0.558232 -0.499375 -0.027818
0.519074 -0.677765 0.571915
0.328964 -0.657079 0.749072
-0.006373 0.357599 0.247821
0.719891 -0.145521 -0.428452
0.663044 -0.718704 0.358152
0.689347 0.103359 -0.613359
0.288526 -0.012424 0.301589
0.144825 0.528818 -0.043069
0.478430 0.320083 -0.261748
0.171607 -0.725755 0.774126
0.677926 -0.914430 -0.086162
0.101133 0.707160 -0.118121
0.700969 -0.656990 0.181696
0.678565 -0.900264 -0.170191
0.034409 -0.672904 0.830789
-0.546009 0.254200 0.641948
0.619715 0.042233 -0.273145
0.760092 0.096513 -0.526570
0.181427 -0.419757 0.636055
-0.391643 0.046016 0.605744
-0.271956 -0.413908 0.566636
0.316147 -0.625179 0.673042
0.245249 0.071592 0.335516
0.035073 1.019450 -0.178450
-0.419872 -0.423554 0.337526
0.495340 -0.311606 0.047321
-0.114685 0.440049 0.346052
0.678769 -0.810403 0.368569
0.377070 -0.067127 0.236066
0.485510 -0.314012 0.256277
0.136712 -0.503888 0.658126
-0.015186 0.011004 0.369942
0.703966 -0.738360 -0.037041
0.491363 -0.244594 -0.031033
0.164025 -0.492047 0.679191
-0.518540 -0.058164 0.584649
0.676491 0.180730 -0.588324
0.438708 -0.209626 -0.344636
0.361389 0.123886 0.151789
0.418962 -0.408488 -0.299282
0.399746 0.108471 -0.142207
0.759340 -0.113337 -0.375546
-0.101409 0.343799 0.378071
-0.721509 0.148632 0.519044
-0.008965 -0.308530 0.559098
-0.161676 0.067848 0.381508
-0.140077 0.442741 0.316880
-0.150890 0.284303 0.522652
0.037134 0.806840 -0.170268
0.726110 0.322740 -0.470679
0.510517 0.073370 -0.121950
0.426109 -0.095844 0.086867
0.677485 -0.986622 -0.080761
0.216614 0.252553 0.125241
0.477668 0.005185 -0.816188
0.688358 -0.825606 0.174434
0.609052 -0.651552 -0.098599
-0.054888 0.869009 -0.125103
0.562120 -0.211343 -0.665627
-0.001003 0.267600 0.360571
0.501478 -0.379423 -0.037064
-0.277433 -0.138550 0.394713
0.663199 -0.829328 -0.070317
0.537033 -0.680220 -0.190128
-0.443523 0.077219 0.677390
0.452295 -0.437793 0.476882
0.450914 -0.312466 -0.091287
0.640480 -0.632565 0.014661
0.158820 -0.372840 0.633473
-0.590512 0.203056 0.644110
0.640903 0.034977 -0.285921
0.507353 -0.186589 -0.648372
0.177680 0.059524 0.374480
0.104976 -0.184600 0.504774
0.238889 0.405672 -0.119465
0.348465 -0.715008 0.739609
0.571938 -0.677016 0.516823
0.170461 -0.496178 0.680904
0.625142 -0.732613 0.439363
0.564908 -0.564146 0.407101
-0.043113 0.148543 0.384285
0.551179 -0.511533 -0.168995
0.230989 0.428553 -0.000596
0.540561 0.241084 -0.743180
-0.169027 -0.017075 0.397020
0.479668 -0.649794 -0.317458
0.570841 0.189346 -0.211165
0.617611 -0.200287 -0.548215
0.566401 -0.512169 0.388135
-0.129322 -0.318223 0.535294
-0.205312 -0.193897 0.464480
0.704309 -0.785766 0.269124
-0.433669 0.212233 0.780746
-0.625109 0.037185 0.626383
0.589643 -0.005316 -0.672337
-0.454479 -0.011152 0.530942
-0.272193 -0.384957 0.490930
0.075574 -0.016331 0.439793
-0.309727 -0.104486 0.316594
0.605071 0.125702 -0.627135
-0.201335 -0.121516 0.413333
0.656630 -0.590937 0.256521
0.110097 -0.639938 0.747792
-0.037379 0.446056 0.129006
-0.134849 0.325894 0.453000
0.101453 0.846105 -0.168504
0.179610 0.521223 -0.057267
-0.591627 0.526103 0.552309
0.710782 -0.746400 -0.035737
0.113156 0.485688 0.057338
0.124095 0.616626 0.011879
-0.260025 -0.406947 0.529162
0.479794 -0.108950 -0.023679
0.638303 0.229079 -0.302401
0.567439 -0.100281 -0.712821
0.013635 -0.201731 0.522507
0.108801 0.628102 -0.156127
0.111056 0.052236 0.344274
-0.438531 -0.434322 0.399281
0.369414 0.316771 -0.179112
-0.590588 0.306637 0.613805
-0.032867 -0.429429 0.649032
-0.137085 0.777498 -0.048029
-0.378971 -0.186538 0.298552
-0.092481 0.400567 0.301126
-0.204128 0.294327 0.525697
-0.543741 0.111975 0.700199
0.369450 -0.173038 -0.285713
-0.110888 -0.573412 0.691958
-0.317869 0.035825 0.538206
-0.100598 0.077360 0.417003
0.323932 0.107662 0.231696
-0.203065 -0.121627 0.384703
0.459089 -0.128823 -0.079414
0.548579 -0.562185 0.471570
0.656936 -0.609878 0.302586
-0.398539 -0.743867 0.588716
-0.122989 0.146091 0.405408
-0.144041 0.426657 0.363981
0.050633 0.633926 0.016269
-0.471187 -0.681866 0.491364
0.503644 -0.546603 -0.253905
0.251437 -0.345086 0.582995
-0.216104 -0.116384 0.351045
0.394249 -0.211963 -0.234367
0.303539 0.005287 0.343333
0.491753 0.159830 -0.115758
-0.583623 0.049818 0.633265
-0.524663 -0.686994 0.472507
0.485947 -0.277570 0.337841
0.380448 -0.269434 0.413043
0.517599 0.364824 -0.369803
0.531165 -0.233290 -0.741411
0.466403 -0.801301 -0.305705
0.476805 0.167799 -0.217642
-0.518184 0.082643 0.675429
-0.403614 -0.038278 0.510372
-0.090627 0.924407 -0.136512
0.525643 -0.738713 -0.257998
-0.535320 -0.013460 0.606990
0.429856 -0.858413 -0.342445
-0.438436 0.406238 0.577849
0.672042 0.055659 -0.575984
0.351465 -0.160895 0.397038
-0.460938 -0.315053 0.272134
-0.379755 -0.376104 0.437839
-0.324451 -0.479000 0.523218
0.659157 -0.671319 0.195298
0.147655 0.478308 0.104582
-0.017564 -0.574019 0.691019
0.426522 -0.132478 0.334065
0.632657 -0.122969 -0.662514
0.764773 -0.070849 -0.464020
-0.805674 0.193428 0.425774
0.582706 -0.405955 0.098796
-0.261198 0.302911 0.583660
-0.005594 -0.646810 0.733991
-0.277917 0.340425 0.582544
-0.175046 -0.406110 0.578237
-0.174264 0.294364 0.557802
0.572925 0.022808 -0.207326
-0.181031 -0.456793 0.608575
-0.647667 0.299449 0.484549
0.724526 -0.869987 0.052106
-0.319700 -0.418329 0.540088
0.674679 -0.226597 -0.582028
0.205491 0.465545 0.032007
0.412260 0.235650 -0.101990
0.284611 -0.743169 0.781261
-0.768944 0.298434 0.370744
0.012409 -0.621215 0.759454
0.418789 -0.110988 0.258183
0.067898 -0.472449 0.605830
0.667296 -0.730000 0.154854
-0.238294 0.065337 0.496364
0.634006 -0.186192 -0.522953
0.016750 0.745624 -0.070588
-0.480099 -0.013184 0.598729
0.078482 0.840451 -0.203539
-0.687191 0.021814 0.497668
-0.508107 0.502082 0.465177
0.018481 -0.347096 0.640595
0.276540 -0.269585 0.573771
0.590745 -1.008930 -0.344387
0.252654 -0.456259 0.649709
0.437980 -0.063826 0.223017
0.678219 -0.821288 0.280276
0.367645 -0.033084 0.012196
0.115405 -0.358882 0.635823
-0.230235 0.244451 0.575525
-0.200181 -0.328053 0.547716
0.531081 -0.319645 -0.145698
-0.426119 -0.613958 0.518995
0.452923 -0.255097 0.130772
0.490286 0.060157 -0.087034
0.614423 0.179188 -0.305500
0.734190 0.347500 -0.575459
-0.095831 -0.620526 0.716296
0.386206 -0.716532 0.746518
0.110880 0.666622 -0.246608
0.429248 -0.358700 -0.174148
0.421485 0.320206 -0.147699
-0.115630 -0.102619 0.451728
0.406789 0.158148 0.070085
0.577975 0.160211 -0.234572
-0.201229 -0.291354 0.492346
-0.421723 -0.518217 0.510033
0.730959 -0.916693 -0.039218
0.057046 0.595797 0.089661
0.435487 -0.507469 0.623920
0.075998 -0.711230 0.772537
-0.131354 0.052474 0.395440
0.603332 -0.560579 0.480804
0.134275 -0.589676 0.730948
-0.036616 0.578116 0.102344
0.778289 0.135214 -0.488648
0.721274 -0.034310 -0.383925
0.636154 -0.965559 -0.115690
0.713910 0.024000 -0.372448
-0.721860 0.041200 0.523202
-0.118303 0.240003 0.448680
0.128119 0.634322 0.023998
0.494114 -0.284711 -0.115045
-0.744730 0.034713 0.545791
-0.094679 -0.717304 0.773192
0.502679 -0.750556 -0.288267
-0.090016 0.314083 0.371138
-0.139551 0.433216 0.151107
-0.214520 -0.721082 0.812287
-0.104129 0.517467 0.100765
0.012415 -0.693829 0.806312
0.609736 -0.230409 -0.510855
-0.649969 -0.064286 0.543591
0.127709 0.669060 -0.066899
-0.570024 0.197176 0.662993
-0.102586 -0.401094 0.625852
-0.133018 -0.181260 0.454116
0.550276 -0.498172 0.063556
0.312919 0.119137 0.299227
0.449793 -0.153066 0.030582
-0.546813 0.013235 0.642426
0.645386 -0.138038 -0.596293
0.564083 -0.542783 -0.017964
-0.426047 0.179070 0.676883
0.729853 0.083931 -0.328129
0.177242 -0.684621 0.755068
0.576223 -0.906441 -0.280263
-0.653766 0.296765 0.567411
0.649613 0.224033 -0.300918
0.721809 0.253375 -0.529462
-0.031159 -0.602441 0.726534
-0.062298 -0.183371 0.494362
-0.112566 0.062056 0.374975
0.626325 -0.753411 -0.203025
0.073083 0.845937 -0.149092
0.140429 0.013402 0.427720
0.661058 -0.864698 -0.101969
-0.597369 0.342023 0.660446
0.737277 -0.832009 0.284083
0.456064 -0.547966 0.545775
0.502677 0.406440 -0.437595
0.433043 -0.465573 0.522429
0.240184 0.358842 -0.082065
0.000917 -0.490194 0.713196
-0.134260 0.526893 0.117221
0.636926 -0.045095 -0.636733
-0.015584 -0.359676 0.592075
0.285031 -0.505970 0.708125
0.632409 -0.550384 0.132439
-0.484262 -0.746781 0.564218
-0.472836 0.011180 0.604442
0.483956 -0.163424 -0.383666
-0.001159 0.151363 0.340236
-0.425806 -0.257621 0.311752
-0.510429 0.475560 0.645087
-0.147797 -0.007305 0.398546
0.551216 -0.514110 -0.060679
-0.172218 0.223510 0.575558
0.273825 -0.442106 0.599881
-0.074507 0.863297 -0.059957
0.114690 0.704411 -0.160265
0.439461 -0.130546 0.222246
-0.187455 0.420986 0.296954
0.488326 -0.344107 0.267716
-0.144546 -0.341624 0.547792
-0.099440 0.404066 0.300049
0.520786 -0.191253 -0.718931
0.313137 0.294375 0.103389
0.524304 0.358719 -0.373009
-0.243134 0.428715 0.403552
-0.570711 0.339506 0.644411
-0.102951 -0.241056 0.504664
-0.043986 0.472866 0.153291
0.638844 -0.927445 -0.167591
-0.792987 0.332227 0.427811
0.642492 0.231912 -0.214488
0.267487 0.345665 -0.024566
0.634651 -0.890322 -0.232344
0.533561 -0.307114 0.082686
-0.220756 -0.514404 0.647302
-0.602446 0.223472 0.576060
-0.038188 -0.485668 0.651269
-0.319420 -0.335138 0.414580
0.729837 0.151069 -0.558625
0.685731 -0.850666 0.183109
0.656637 -0.659251 0.289825
0.599947 -0.587103 0.181056
-0.565322 0.149996 0.588298
-0.080752 0.546170 0.083307
0.677127 -0.149164 -0.610777
0.540958 -0.474460 0.296433
0.524414 -0.393772 0.345153
-0.010771 -0.521155 0.689665
0.486498 0.362884 -0.284971
0.176568 0.310135 0.231254
0.311056 0.104512 0.246968
0.338734 0.149467 0.158571
0.667568 0.186028 -0.660734
0.431435 0.272664 -0.131579
0.186325 -0.099694 0.458332
0.456588 -0.601703 -0.296567
0.781829 0.005470 -0.393446
-0.262223 0.325466 0.602663
0.370377 -0.370239 -0.339253
0.514127 -0.397017 0.335465
0.431549 -0.144298 -0.182119
0.535134 -0.775789 0.641190
-0.126535 0.373396 0.327201
-0.317182 -0.771984 0.715026
0.274988 0.334704 0.042713
0.375040 -0.311909 0.498485
0.192416 -0.525057 0.695133
-0.150144 -0.126364 0.443602
-0.415518 0.046070 0.568257
0.739613 0.213064 -0.412555
0.213231 -0.180670 0.510724
-0.037283 -0.571515 0.722744
0.633508 -0.807069 0.567930
-0.497635 0.339834 0.648092
