-0.047664 0.314249 -0.053147
-0.365603 0.316011 -0.055852
-0.438840 0.235388 -0.087428
0.051434 0.234910 -0.092590
0.045826 0.233854 -0.087955
0.049224 0.234839 -0.091076
0.046035 0.233976 -0.089324
-0.365812 0.310208 -0.052107
-0.438278 0.233698 -0.085056
0.037936 0.226407 -0.087707
0.042292 0.226720 -0.093040
0.040066 0.229108 -0.087016
-0.368190 0.307378 -0.052027
-0.354821 0.318000 -0.046394
0.031707 0.217927 -0.092938
0.031501 0.226249 -0.081950
0.024232 0.219191 -0.082395
0.039071 0.229152 -0.086152
0.044087 0.225137 -0.096077
-0.360691 0.318406 -0.052334
-0.363030 0.321665 -0.057142
0.026582 0.217220 -0.087010
0.030511 0.219639 -0.088608
0.025469 0.213415 -0.091533
-0.360627 0.312395 -0.048698
-0.036888 0.329678 -0.058436
-0.048979 0.323866 -0.050639
-0.048782 0.319636 -0.051996
-0.354919 0.315152 -0.045399
-0.362516 0.316042 -0.052611
-0.444338 0.205729 -0.081134
-0.441857 0.221717 -0.083172
0.016895 0.208275 -0.087512
0.024100 0.214241 -0.088034
0.018277 0.211273 -0.084044
0.028132 0.213901 -0.095421
0.021235 0.206034 -0.097795
0.026162 0.209919 -0.097665
-0.357579 0.328262 -0.056287
-0.045031 0.328575 -0.051361
-0.035583 0.333817 -0.055736
-0.044867 0.329287 -0.051735
-0.349371 0.332926 -0.046129
-0.352650 0.331831 -0.049808
-0.358224 0.336011 -0.060466
0.011964 0.207001 -0.080178
0.009571 0.197843 -0.083384
-0.028248 0.338197 -0.055066
-0.039937 0.329628 -0.055736
-0.035435 0.328110 -0.060815
-0.032393 0.339179 -0.050654
-0.039235 0.335676 -0.049791
0.009233 0.182680 -0.091669
0.010172 0.189400 -0.091254
0.010553 0.195452 -0.088754
0.011920 0.192545 -0.096264
-0.042176 0.328329 -0.054877
-0.356180 0.334903 -0.057048
0.009614 0.184129 -0.093287
0.008063 0.183364 -0.089391
0.010603 0.186975 -0.094067
0.008031 0.179408 -0.086931
0.008843 0.182235 -0.091408
0.006996 0.182648 -0.083574
0.007618 0.166442 -0.087850
0.010210 0.163248 -0.095185
0.007168 0.161599 -0.085204
0.008845 0.162666 -0.089708
0.008415 0.165614 -0.089781
0.013726 0.150345 -0.094753
0.013397 0.155142 -0.096821
0.016547 0.141351 -0.090786
0.022432 0.144675 -0.097946
0.015711 0.136763 -0.086155
0.020533 0.134699 -0.089229
0.017110 0.134029 -0.085051
0.018884 0.138569 -0.090836
0.028268 0.134850 -0.094006
0.023353 0.130630 -0.088103
0.028400 0.133645 -0.093223
0.035810 0.118708 -0.084306
0.025674 0.127598 -0.087262
0.043817 0.120000 -0.088315
0.038061 0.125346 -0.091335
0.044636 0.119964 -0.088045
0.042920 0.127095 -0.094321
0.041586 0.126059 -0.093307
0.047005 0.119887 -0.088611
0.050703 0.123071 -0.092610
0.049875 0.120854 -0.089548
0.061283 0.121088 -0.091963
0.063767 0.122271 -0.093095
0.076746 0.119638 -0.094406
0.058233 0.122208 -0.092017
0.052065 0.113531 -0.082796
0.057982 0.118884 -0.089547
0.056610 0.117046 -0.086883
0.060077 0.119141 -0.089410
0.069916 0.118426 -0.089262
0.071023 0.118486 -0.089807
0.079065 0.113631 -0.088887
0.078423 0.117141 -0.092883
0.081145 0.115864 -0.093776
0.080703 0.117665 -0.095402
0.087801 0.111338 -0.096738
0.088137 0.110286 -0.096385
0.087749 0.108915 -0.094167
0.089047 0.097179 -0.082105
0.089473 0.102228 -0.088293
0.101502 0.090736 -0.090036
0.094071 0.099866 -0.092005
0.098317 0.099409 -0.097758
0.093829 0.104537 -0.098281
0.104344 0.085834 -0.090243
0.101851 0.081300 -0.085086
0.100596 0.089629 -0.087577
0.103606 0.082979 -0.088351
0.104392 0.080750 -0.089537
0.099620 0.067931 -0.087915
0.103415 0.073041 -0.090493
0.102503 0.067300 -0.091761
0.090155 0.062183 -0.085795
0.091304 0.058237 -0.094798
0.100431 0.061918 -0.095738
0.096547 0.065502 -0.088555
0.103852 0.067165 -0.093898
0.075369 0.048254 -0.097801
0.089808 0.056294 -0.095393
0.089215 0.058260 -0.093306
0.091410 0.057565 -0.093981
0.095189 0.063807 -0.087651
0.093913 0.062686 -0.088387
0.070316 0.050535 -0.087498
0.071012 0.047558 -0.091106
0.079869 0.053317 -0.089779
0.086694 0.059944 -0.086556
0.065968 0.043926 -0.092421
0.061411 0.048237 -0.083207
0.068871 0.046477 -0.090788
0.069600 0.046461 -0.091380
0.068602 0.046818 -0.089341
0.065845 0.039893 -0.092543
0.066161 0.038437 -0.092889
0.067386 0.026956 -0.092762
0.067792 0.028455 -0.097983
0.065054 0.025989 -0.084387
-0.354348 0.334129 -0.052754
0.067811 0.023892 -0.091467
-0.356837 0.335242 -0.057846
-0.028437 0.337332 -0.056111
-0.030451 0.339439 -0.051140
-0.028462 0.344879 -0.045575
0.067972 0.018876 -0.094100
-0.038413 0.330966 -0.055407
-0.034991 0.339204 -0.047372
0.068028 0.017392 -0.093925
0.066346 0.007521 -0.084855
0.065994 0.003674 -0.092753
0.067789 0.022323 -0.093488
-0.349795 0.343080 -0.048195
-0.355740 0.332757 -0.055401
-0.016841 0.348248 -0.051694
-0.026524 0.342685 -0.049487
0.066223 0.007039 -0.086430
-0.003157 0.356128 -0.053731
-0.003444 0.356100 -0.053469
-0.013036 0.346509 -0.057805
-0.011273 0.350996 -0.052619
0.066175 0.001602 -0.092456
0.066921 0.003529 -0.090874
0.067432 0.008315 -0.089809
0.065084 0.004651 -0.099854
-0.020257 0.347435 -0.048935
-0.349539 0.353733 -0.055898
-0.434355 -0.005729 -0.089591
-0.431632 0.006003 -0.079769
-0.432101 0.006261 -0.080297
-0.435043 -0.003155 -0.089069
0.063810 -0.000328 -0.100568
0.064005 -0.002908 -0.083377
-0.435110 -0.005382 -0.090553
-0.432700 0.003150 -0.083426
-0.435337 -0.015593 -0.093885
0.059611 -0.009892 -0.089556
-0.435028 -0.015895 -0.093275
-0.432454 -0.019467 -0.092255
-0.434252 -0.007070 -0.090247
0.064385 -0.001580 -0.087314
-0.434199 -0.014438 -0.091827
-0.432698 -0.026355 -0.093013
0.051877 -0.019424 -0.090480
0.048937 -0.024002 -0.082243
-0.432185 -0.021772 -0.091785
0.051596 -0.020346 -0.089523
0.047620 -0.026165 -0.082489
-0.435776 -0.024947 -0.095229
-0.431719 -0.030467 -0.091443
0.045066 -0.031881 -0.091099
0.043925 -0.035468 -0.089167
-0.432051 -0.042333 -0.091679
-0.430442 -0.031457 -0.090162
-0.423402 -0.036032 -0.082596
-0.434270 -0.028483 -0.093819
0.047016 -0.028490 -0.086795
0.042396 -0.043785 -0.082150
0.044684 -0.033429 -0.086165
-0.436658 -0.036138 -0.096147
-0.432191 -0.042719 -0.091410
0.043009 -0.038425 -0.090536
-0.431391 -0.045438 -0.090913
-0.422174 -0.037768 -0.081371
0.040866 -0.051718 -0.099045
-0.433490 -0.052919 -0.093942
-0.423861 -0.042952 -0.083054
0.041312 -0.055748 -0.092684
0.042013 -0.051904 -0.083551
0.041620 -0.047354 -0.090080
-0.434257 -0.054138 -0.094990
-0.431980 -0.059703 -0.094111
-0.426642 -0.062877 -0.088700
-0.431712 -0.053605 -0.092157
-0.433104 -0.062835 -0.096448
-0.420528 -0.067416 -0.082277
0.040961 -0.062166 -0.099829
-0.423662 -0.072530 -0.088994
-0.421557 -0.064240 -0.082989
0.042514 -0.071285 -0.088881
-0.424125 -0.077943 -0.092282
-0.427165 -0.063868 -0.089923
-0.422785 -0.080052 -0.092111
-0.415735 -0.083716 -0.086109
0.043074 -0.078198 -0.087533
-0.420093 -0.083408 -0.091687
-0.413901 -0.081303 -0.082543
0.040407 -0.083011 -0.093971
0.041058 -0.082314 -0.090413
-0.412783 -0.093269 -0.089475
-0.417082 -0.087281 -0.091347
-0.421951 -0.088834 -0.097111
0.041421 -0.083693 -0.088149
0.042738 -0.081120 -0.086410
0.035564 -0.094654 -0.090863
-0.409795 -0.100254 -0.088723
-0.413092 -0.101796 -0.094183
-0.420532 -0.097674 -0.100030
-0.415372 -0.097260 -0.093814
-0.410356 -0.095381 -0.088119
0.038194 -0.090930 -0.088708
0.031802 -0.098611 -0.091161
0.032108 -0.098644 -0.089598
-0.407492 -0.104165 -0.088562
-0.409921 -0.099389 -0.088722
-0.406676 -0.101707 -0.087690
0.024970 -0.104174 -0.090155
0.019569 -0.103880 -0.098717
0.030148 -0.100728 -0.085180
0.027977 -0.101724 -0.091836
-0.397731 -0.108575 -0.086662
-0.407351 -0.104955 -0.090127
-0.403311 -0.104398 -0.085306
0.002692 -0.112574 -0.098812
0.015320 -0.108496 -0.090465
0.016926 -0.108197 -0.081970
-0.410769 -0.103845 -0.091703
-0.409338 -0.118239 -0.097629
-0.396032 -0.112265 -0.086417
0.002072 -0.113477 -0.096023
0.001321 -0.113430 -0.088152
-0.400526 -0.119849 -0.092491
-0.393774 -0.118926 -0.090466
-0.396038 -0.112105 -0.086516
-0.019176 -0.120713 -0.087913
-0.008065 -0.115954 -0.085191
-0.000692 -0.114038 -0.089465
-0.393225 -0.120757 -0.090348
-0.392184 -0.124305 -0.091214
-0.391561 -0.125155 -0.090875
-0.021260 -0.121018 -0.094510
-0.013643 -0.117056 -0.097661
-0.019560 -0.121519 -0.090969
-0.021743 -0.120812 -0.097542
-0.392173 -0.127792 -0.091870
-0.392538 -0.125280 -0.091740
-0.382296 -0.128469 -0.082899
-0.391688 -0.125651 -0.091397
-0.034867 -0.130439 -0.086567
-0.027742 -0.125694 -0.090399
-0.392051 -0.124833 -0.090699
-0.385782 -0.134495 -0.087041
-0.387996 -0.134044 -0.089791
-0.040190 -0.132799 -0.094202
-0.042324 -0.134097 -0.087736
-0.037687 -0.131296 -0.096946
-0.395251 -0.133992 -0.095541
-0.057308 -0.143005 -0.088720
-0.057486 -0.142496 -0.090716
-0.051690 -0.138317 -0.099039
-0.387213 -0.136868 -0.089085
-0.064754 -0.152226 -0.081530
-0.061669 -0.148497 -0.086226
-0.059381 -0.145432 -0.092621
-0.387379 -0.151960 -0.091255
-0.386127 -0.143375 -0.089159
-0.385927 -0.154131 -0.089394
-0.390561 -0.157195 -0.094065
-0.065694 -0.154548 -0.094581
-0.387729 -0.156461 -0.091733
-0.067254 -0.156887 -0.085873
-0.383693 -0.157700 -0.083591
-0.389523 -0.158530 -0.092456
-0.391125 -0.160151 -0.096496
-0.389726 -0.162561 -0.091716
-0.389588 -0.160182 -0.092627
-0.068789 -0.159541 -0.084532
-0.007231 0.354496 -0.051813
-0.070433 -0.176345 -0.090657
0.003708 0.363078 -0.054571
-0.348029 0.358966 -0.061010
-0.348940 0.352820 -0.053310
-0.070689 -0.175817 -0.090500
-0.067866 -0.185048 -0.090508
0.000177 0.360197 -0.052095
-0.006982 0.361684 -0.044337
-0.345405 0.366908 -0.061084
-0.070483 -0.178713 -0.089168
-0.345034 0.357281 -0.044875
0.008245 0.367469 -0.053144
-0.069867 -0.184941 -0.085797
-0.064894 -0.188636 -0.095127
-0.340695 0.372394 -0.055892
-0.065881 -0.193821 -0.086256
-0.061097 -0.201672 -0.086491
-0.067837 -0.185011 -0.090606
-0.060243 -0.194678 -0.099866
-0.344877 0.363968 -0.054159
-0.338800 0.373418 -0.049150
-0.340754 0.372454 -0.053786
0.014149 0.376819 -0.051632
-0.056621 -0.209022 -0.089321
-0.057678 -0.207779 -0.088394
-0.056047 -0.210891 -0.088070
-0.061476 -0.198195 -0.090892
-0.056344 -0.203651 -0.098049
-0.055573 -0.214107 -0.086416
-0.053458 -0.212115 -0.097083
-0.059310 -0.209415 -0.081122
-0.049266 -0.223822 -0.092156
-0.053734 -0.219374 -0.083821
-0.049105 -0.232184 -0.083539
-0.049830 -0.227322 -0.084786
-0.048068 -0.235130 -0.088220
-0.046929 -0.247551 -0.093841
-0.046621 -0.242094 -0.094902
-0.048206 -0.257303 -0.088970
-0.048055 -0.253886 -0.085393
-0.047995 -0.257324 -0.088601
-0.049282 -0.263793 -0.086958
-0.048800 -0.262264 -0.086374
-0.049556 -0.273723 -0.093737
-0.051191 -0.277474 -0.085613
-0.051934 -0.285190 -0.087102
-0.050854 -0.284113 -0.093009
-0.052237 -0.293748 -0.090717
-0.051738 -0.288044 -0.088828
-0.052020 -0.297515 -0.085806
-0.048161 -0.311098 -0.090156
-0.047287 -0.313993 -0.092624
-0.038115 -0.328868 -0.087675
-0.038465 -0.330123 -0.095051
-0.036150 -0.333643 -0.087835
-0.032050 -0.338492 -0.095786
-0.030605 -0.340604 -0.096749
-0.032975 -0.336563 -0.092352
0.014766 0.086875 -0.052671
0.022816 0.083734 -0.061569
0.054507 -0.006200 -0.138606
0.031325 -0.340219 -0.097904
0.054189 -0.008815 -0.145082
0.037655 -0.342951 -0.080575
0.032816 -0.342542 -0.080429
0.037859 -0.342623 -0.081906
0.037359 -0.342575 -0.090274
-0.385570 0.090559 -0.056990
-0.394830 0.080654 -0.059251
0.056657 0.005406 -0.143177
0.053293 -0.011984 -0.146902
0.052717 -0.348875 -0.086595
0.056294 0.001690 -0.145214
0.056458 0.002463 -0.139738
0.056286 -0.351594 -0.085134
0.056780 -0.351942 -0.084546
0.063024 -0.357022 -0.087818
0.060230 -0.353692 -0.093318
0.066733 -0.359492 -0.091939
0.063634 -0.357662 -0.086238
0.064178 -0.358292 -0.088193
0.075544 -0.368619 -0.090678
0.075871 -0.369236 -0.082722
0.080971 -0.374985 -0.100214
0.082014 -0.377170 -0.079475
0.083084 -0.382124 -0.094264
0.084903 -0.382721 -0.081005
0.087577 -0.391280 -0.082704
0.086672 -0.402076 -0.091958
0.087459 -0.400333 -0.091326
0.083186 -0.410817 -0.089568
0.078819 -0.418586 -0.090041
0.073421 -0.425303 -0.096901
0.075145 -0.422674 -0.095680
0.077948 -0.420348 -0.088213
0.076368 -0.423239 -0.084720
0.074326 -0.425959 -0.085298
0.074720 -0.424808 -0.087793
0.075818 -0.423564 -0.087462
0.065284 -0.437966 -0.097038
0.061999 -0.448219 -0.088949
0.054545 -0.458246 -0.093558
0.047834 -0.465711 -0.094087
0.043735 -0.476267 -0.085684
0.042148 -0.473596 -0.093365
0.043890 -0.475857 -0.086006
0.039434 -0.480163 -0.087635
0.044645 -0.472394 -0.089489
0.041129 -0.480354 -0.083737
0.033092 -0.484908 -0.093664
0.034824 -0.485668 -0.088612
0.043192 -0.477215 -0.085331
0.032647 -0.484518 -0.094677
0.037155 -0.480340 -0.091669
0.043502 -0.472575 -0.093183
0.043349 -0.468137 -0.099978
0.044236 -0.470456 -0.094747
-0.235321 0.417271 -0.001265
-0.231651 0.415745 0.000616
-0.245165 0.418174 -0.002085
-0.247124 0.416063 -0.000034
-0.246160 0.416587 -0.001325
-0.258206 0.418511 -0.007820
-0.256682 0.413494 -0.003707
-0.249345 0.411801 0.000310
-0.246954 0.417167 -0.001842
-0.262986 0.416755 -0.009744
-0.066338 0.431591 -0.001529
-0.051038 0.429655 -0.009021
-0.093296 0.424503 -0.004015
-0.195137 0.419838 -0.009191
-0.201430 0.424119 -0.008594
-0.203390 0.421224 -0.006170
-0.203905 0.417037 -0.003874
-0.210196 0.428775 -0.009380
-0.215494 0.424594 -0.006705
-0.224043 0.430051 -0.011259
-0.223865 0.418875 -0.002170
-0.241657 0.424176 -0.008298
-0.245895 0.427505 -0.013916
-0.247313 0.421160 -0.005713
-0.063825 0.425289 0.001211
-0.059401 0.427499 -0.002333
-0.092366 0.431742 -0.005636
-0.092172 0.438031 -0.011597
-0.064421 0.434398 -0.003704
-0.064726 0.433089 -0.002867
-0.081258 0.433134 -0.001074
-0.075758 0.436595 -0.002967
-0.084630 0.431983 -0.000865
-0.063840 0.433347 -0.003233
-0.071237 0.436150 -0.002748
-0.079382 0.446176 -0.014109
-0.088526 0.437775 -0.008532
-0.091167 0.447633 -0.018507
-0.087892 0.440464 -0.010191
-0.080178 0.443665 -0.011117
-0.201650 -0.370903 0.180599
-0.211482 -0.368968 0.182145
0.053258 -0.461427 -0.089584
0.052501 -0.462677 -0.088080
0.041736 -0.471916 -0.096544
0.053001 -0.460131 -0.094750
0.050033 -0.463954 -0.092292
0.052522 -0.462540 -0.088162
0.036436 -0.466527 0.026985
-0.214830 -0.379735 0.192692
-0.207459 -0.376718 0.186746
0.016117 0.102665 -0.057815
0.019471 0.101923 -0.061391
0.026164 0.090113 -0.064488
0.014936 0.096312 -0.053557
-0.064625 0.475525 -0.134465
-0.384282 0.090542 -0.056712
-0.060910 0.473840 -0.134428
-0.080277 0.476973 -0.127305
-0.072289 0.477013 -0.132872
-0.062488 0.474414 -0.134516
-0.066100 0.470176 -0.130001
-0.054894 0.477338 -0.138047
-0.070001 0.471246 -0.128799
-0.059392 0.471104 -0.133656
-0.054783 0.468441 -0.132173
-0.054096 0.472357 -0.135865
-0.044565 0.463032 -0.130671
-0.049083 0.467956 -0.132854
-0.037710 0.468617 -0.137850
-0.054887 0.462085 -0.126836
-0.051139 0.463594 -0.129196
-0.045135 0.468555 -0.135408
-0.045058 0.459907 -0.128010
-0.031824 0.455731 -0.129552
-0.035548 0.468223 -0.138503
-0.027701 0.459644 -0.134823
-0.021225 0.458387 -0.136723
-0.031258 0.461510 -0.134615
-0.025617 0.455854 -0.132740
-0.016437 0.456881 -0.137396
-0.023570 0.458777 -0.136227
-0.030014 0.458436 -0.132650
-0.015529 0.460147 -0.142154
-0.010445 0.453034 -0.135054
-0.016347 0.454749 -0.134983
-0.008171 0.447285 -0.130132
-0.010750 0.453510 -0.135694
-0.006972 0.452976 -0.137689
-0.004049 0.452380 -0.138392
0.032554 -0.465271 0.032668
0.037537 -0.464733 0.025545
0.031942 -0.458805 0.038014
0.037155 -0.449259 0.033350
0.003792 0.445126 -0.132786
0.002113 0.443463 -0.131452
0.011855 0.442541 -0.134510
0.013733 0.441857 -0.135047
0.033079 -0.447516 0.042093
0.001602 0.444604 -0.131971
-0.001594 0.442746 -0.127800
0.001978 0.444879 -0.132404
0.004075 0.444100 -0.133103
0.012570 0.441574 -0.135107
0.012114 0.434012 -0.128728
0.037376 -0.448230 0.033881
0.039928 -0.453298 0.026959
0.017287 0.439422 -0.135734
0.015437 0.434236 -0.130930
0.016765 0.436691 -0.132737
0.036769 0.437651 -0.138278
0.043635 0.430773 -0.133281
0.042763 0.435674 -0.137328
0.052681 0.431036 -0.135965
0.042055 -0.442953 0.028572
0.017415 0.430839 -0.130401
0.021112 0.428037 -0.131137
0.039695 0.434619 -0.137636
0.042737 0.439538 -0.140314
0.048939 0.424996 -0.126245
0.054500 0.427039 -0.131081
0.044250 0.428897 -0.132061
0.043483 0.429320 -0.132304
0.053550 0.431435 -0.136483
0.058090 0.422430 -0.123295
0.033076 -0.452879 0.039433
0.033831 -0.445323 0.042192
0.036151 -0.447610 0.036761
0.025492 0.423075 -0.131153
0.021541 0.434918 -0.134100
0.034883 0.424184 -0.132144
0.032761 0.429057 -0.134033
0.064903 0.423475 -0.129870
0.060163 0.426365 -0.132592
0.073602 0.421113 -0.134134
0.068047 0.426202 -0.138450
0.037182 -0.442662 0.037485
0.037787 -0.437799 0.038892
0.047310 -0.429682 0.026858
0.048658 -0.426291 0.024946
0.044555 -0.432729 0.029568
0.041151 -0.432577 0.034516
0.044060 -0.428233 0.032179
0.046660 -0.427057 0.028110
0.031114 0.429502 -0.135143
0.028505 0.420642 -0.131907
0.027955 0.421659 -0.130494
0.031460 0.420929 -0.131180
0.071555 0.420531 -0.127039
0.061976 0.423831 -0.129722
0.073518 0.420914 -0.133889
0.040532 -0.420327 0.038117
0.048501 -0.416106 0.026370
0.024512 0.422416 -0.130764
0.031347 0.420191 -0.127425
0.029959 0.415325 -0.126664
0.027596 0.421372 -0.131480
0.028307 0.414899 -0.127726
0.074130 0.421771 -0.139330
0.094897 0.409757 -0.135844
0.089807 0.413764 -0.138842
0.038875 -0.426001 0.039654
0.043033 -0.410471 0.033498
0.044296 -0.412430 0.032622
0.045537 -0.403539 0.026949
0.042097 -0.396489 0.023611
0.096027 0.408897 -0.136968
0.096103 0.409367 -0.143099
0.091021 0.412462 -0.134479
0.042514 -0.398914 0.026251
0.039920 -0.407045 0.036030
0.097426 0.407928 -0.142438
0.097220 0.407573 -0.140588
0.108943 0.397200 -0.134849
0.105002 0.398375 -0.124869
0.043229 -0.407063 0.031815
0.109513 0.396393 -0.136743
0.033691 -0.401243 0.038331
0.028545 -0.396528 0.038303
0.111775 0.381342 -0.128105
0.110447 0.395363 -0.135191
0.029154 -0.397538 0.038907
0.111861 0.377770 -0.129431
0.113898 0.375823 -0.135040
0.111181 0.384681 -0.125839
0.116730 0.380340 -0.141230
0.113763 0.378333 -0.132445
0.113993 0.377690 -0.134920
0.034707 -0.397846 0.033777
0.028618 -0.394330 0.036310
0.116096 0.373816 -0.143157
0.017129 -0.388525 0.038582
0.011057 -0.382011 0.032949
0.101224 0.366005 -0.127834
0.096513 0.361321 -0.127849
0.094556 0.361568 -0.125582
0.110468 0.367930 -0.138044
0.014990 -0.387392 0.039787
0.018801 -0.383624 0.029865
0.008947 -0.385735 0.041913
0.010102 -0.377988 0.026827
0.094474 0.354473 -0.133380
0.101650 0.359993 -0.135581
0.002337 -0.377727 0.032510
-0.002650 -0.373271 0.026499
0.001851 -0.375748 0.027931
-0.006939 -0.375474 0.035638
-0.007574 -0.371791 0.026951
0.096188 0.356865 -0.132220
0.096415 0.349199 -0.139878
-0.011706 -0.370628 0.027840
-0.014072 -0.371911 0.032443
-0.020727 -0.369969 0.033068
-0.031426 -0.365814 0.034100
-0.021816 -0.368828 0.032339
-0.033555 -0.362404 0.031304
-0.028148 -0.366645 0.032899
0.089360 0.341947 -0.135499
0.088554 0.349511 -0.128777
0.082715 0.331179 -0.138109
0.091104 0.343789 -0.138089
-0.032473 -0.364882 0.033856
-0.041016 -0.361467 0.037862
0.083764 0.337786 -0.130327
0.085569 0.344472 -0.127321
0.087895 0.338802 -0.137147
0.085843 0.342726 -0.128647
-0.041595 -0.360263 0.035859
-0.052928 -0.351645 0.033083
0.083245 0.337077 -0.129808
0.076035 0.327870 -0.133696
0.076750 0.328925 -0.124027
-0.041419 -0.353529 0.022401
-0.042442 -0.362068 0.041466
-0.050568 -0.356637 0.039820
0.076795 0.328254 -0.127305
0.058548 0.314434 -0.134872
0.066712 0.318889 -0.135402
0.071138 0.322156 -0.127078
0.067369 0.320915 -0.133377
0.063624 0.318200 -0.132324
-0.048823 -0.350762 0.026732
-0.048856 -0.352424 0.030325
-0.052864 -0.355979 0.041421
0.051865 0.305739 -0.136029
0.045339 0.300646 -0.131202
0.052971 0.313243 -0.127725
0.053006 0.306022 -0.138033
0.052883 0.301680 -0.141523
-0.058191 -0.346397 0.027356
-0.059463 -0.347538 0.033254
0.040990 0.295894 -0.128458
0.042346 0.296635 -0.128891
0.046780 0.297992 -0.133643
-0.060867 -0.345357 0.029656
-0.058585 -0.346443 0.029409
-0.058094 -0.345909 0.025769
0.047588 0.295153 -0.135187
0.045065 0.285519 -0.128980
0.051651 0.284074 -0.137344
-0.061098 -0.344496 0.025146
-0.063862 -0.346149 0.035380
-0.062508 -0.344158 0.026780
-0.071042 -0.343591 0.040918
0.049083 0.289924 -0.135438
-0.072477 -0.340618 0.030184
-0.068813 -0.342609 0.034051
0.049677 0.276149 -0.127271
0.054118 0.275704 -0.134147
0.053092 0.282091 -0.136698
-0.072397 -0.341772 0.036334
-0.078827 -0.337065 0.034863
0.050609 0.274843 -0.126444
0.053267 0.274832 -0.130040
0.060490 0.269093 -0.134669
-0.084895 -0.333861 0.040543
-0.090635 -0.331136 0.041941
0.066390 0.264852 -0.140052
0.060743 0.268612 -0.133955
0.067753 0.263205 -0.135284
0.060144 0.270113 -0.134986
0.063955 0.267275 -0.135563
0.067771 0.262765 -0.135300
-0.102594 -0.328290 0.041015
-0.145580 -0.328115 0.037287
-0.142465 -0.323723 0.030486
-0.139112 -0.323536 0.029823
0.071585 0.256970 -0.126761
0.072116 0.255561 -0.125309
0.010561 0.369819 -0.055288
0.015649 0.379242 -0.050443
0.014273 0.377195 -0.046623
0.008590 0.369164 -0.049402
0.076776 0.236309 -0.120028
0.078867 0.229230 -0.133390
0.077252 0.225348 -0.128758
0.078498 0.227298 -0.134564
0.076018 0.225290 -0.124819
0.074693 0.214647 -0.132215
0.075198 0.218183 -0.129912
0.073684 0.209249 -0.135051
0.059775 0.208070 -0.124450
0.073004 0.209235 -0.133984
0.059914 0.200192 -0.126735
0.070147 0.204393 -0.132967
0.073778 0.206332 -0.137335
0.073782 0.206352 -0.137470
0.072949 0.203274 -0.138086
0.061531 0.186046 -0.131744
0.069501 0.194212 -0.136559
0.067104 0.187787 -0.134740
0.067827 0.187103 -0.135115
0.058264 0.188103 -0.129828
0.063357 0.186514 -0.132758
0.071422 0.178694 -0.134944
0.059184 0.186971 -0.130170
0.062548 0.184101 -0.132112
0.070921 0.176428 -0.133590
0.061764 0.176914 -0.128626
0.070035 0.178899 -0.133725
0.075893 0.172597 -0.134946
0.074805 0.175404 -0.135521
0.073171 0.168614 -0.129008
0.080660 0.164085 -0.136093
0.079287 0.167355 -0.137045
0.079453 0.159453 -0.127186
0.081957 0.163352 -0.137309
0.080254 0.157678 -0.125687
0.080236 0.157655 -0.125499
0.084862 0.150934 -0.125575
0.087099 0.139830 -0.138848
0.088953 0.131443 -0.133468
0.088089 0.125647 -0.132139
0.088937 0.130376 -0.132915
0.089051 0.124545 -0.132743
0.088944 0.130956 -0.131752
0.090035 0.128633 -0.129575
0.085928 0.122864 -0.133890
0.088268 0.125916 -0.132688
0.085336 0.125640 -0.135750
0.083609 0.117159 -0.133158
0.074109 0.107752 -0.137044
0.084462 0.116472 -0.132387
0.076444 0.114039 -0.138359
0.090474 0.115446 -0.125321
0.078197 0.101725 -0.130803
0.075277 0.099767 -0.132574
0.077888 0.101166 -0.130817
0.067486 0.091514 -0.137924
0.072801 0.103630 -0.137379
0.075943 0.096536 -0.130528
0.074554 0.099378 -0.132598
0.066086 0.092677 -0.140921
0.073318 0.094624 -0.132336
0.081602 0.098852 -0.127121
0.077210 0.088701 -0.127260
0.069315 0.086652 -0.133795
0.070243 0.097635 -0.136934
0.073512 0.091776 -0.130882
0.068581 0.086872 -0.135370
0.070253 0.082133 -0.132063
0.070729 0.081620 -0.130933
0.067351 0.069039 -0.133419
0.067846 0.070868 -0.132924
0.065916 0.073595 -0.134789
0.066534 0.060711 -0.133533
0.065003 0.071149 -0.136588
0.067464 0.059229 -0.131977
0.062955 0.062698 -0.138821
0.068412 0.059985 -0.130747
0.063053 0.049564 -0.136374
0.068947 0.051842 -0.129062
0.064141 0.045774 -0.132990
0.063303 0.046087 -0.134885
0.064029 0.045158 -0.133013
0.063970 0.048648 -0.133949
0.064216 0.055357 -0.135449
0.070158 0.053088 -0.128700
0.061154 0.032388 -0.131229
0.060224 0.037751 -0.137191
0.062214 0.038188 -0.132758
0.059068 0.030970 -0.140569
0.057683 0.012861 -0.135304
0.058724 0.022407 -0.133182
0.057831 0.009587 -0.127610
0.057318 0.007486 -0.132339
0.056125 -0.000136 -0.126890
0.056072 0.004684 -0.141507
0.033294 0.114224 -0.305413
0.053012 -0.010675 -0.123141
0.031572 0.100356 -0.305052
0.031860 0.118490 -0.309007
0.023066 0.107533 -0.314378
0.051048 -0.015877 -0.142978
0.052474 -0.010197 -0.128892
0.052030 -0.010519 -0.127884
0.027803 0.116837 -0.312501
0.026784 0.121868 -0.314781
0.034183 0.128654 -0.308962
0.045516 -0.023901 -0.140396
0.048623 -0.017894 -0.133146
0.045843 -0.022949 -0.138100
0.048601 -0.018630 -0.123717
0.041350 -0.030697 -0.124337
0.042720 -0.029714 -0.138787
0.038589 -0.044176 -0.131066
-0.334691 0.380550 -0.044038
0.037965 -0.044657 -0.138961
0.038277 -0.046092 -0.129822
0.037184 -0.057691 -0.130017
0.036946 -0.057289 -0.130393
-0.337173 0.379253 -0.053389
0.018826 0.389393 -0.056481
-0.332588 0.388182 -0.050882
-0.336531 0.381075 -0.054338
0.028567 -0.073683 -0.140919
0.032889 -0.063985 -0.142794
-0.332953 0.389705 -0.056604
-0.334310 0.384281 -0.053744
0.018565 0.389897 -0.054948
-0.331565 0.389660 -0.049814
0.028239 -0.076540 -0.136262
0.037094 -0.066634 -0.121012
-0.317038 0.404939 -0.045741
0.025481 -0.083977 -0.129681
-0.328896 0.396957 -0.055419
-0.332664 0.391353 -0.056637
0.018976 0.397137 -0.056415
0.018200 0.404417 -0.047917
0.019448 -0.091730 -0.134020
0.024600 -0.087053 -0.127520
0.025971 -0.081456 -0.131449
0.017623 0.400709 -0.042873
0.017336 0.405823 -0.056074
-0.318944 0.407706 -0.054722
-0.314761 0.411069 -0.055466
-0.314852 0.410646 -0.053365
-0.312882 0.412101 -0.053144
0.018467 -0.095540 -0.129208
-0.280516 0.420154 -0.050317
-0.289851 0.419851 -0.051556
0.008534 -0.104402 -0.134037
0.013289 -0.098714 -0.137967
0.003972 -0.105762 -0.140769
0.001420 -0.110599 -0.127794
0.005938 -0.106777 -0.128966
0.006964 -0.105894 -0.134243
0.005738 -0.107958 -0.125967
0.009845 -0.105275 -0.127254
-0.022136 -0.119828 -0.138931
-0.001171 -0.111326 -0.130281
-0.022244 -0.120375 -0.132946
-0.009353 -0.115114 -0.128073
-0.013174 -0.115890 -0.137712
-0.041622 -0.127480 -0.135890
-0.028331 -0.122650 -0.134156
-0.033470 -0.124403 -0.128583
-0.026507 -0.122448 -0.126259
-0.052871 -0.134529 -0.133067
-0.051896 -0.135158 -0.129218
-0.050668 -0.133995 -0.127027
-0.297788 0.415869 -0.048364
-0.309253 0.414754 -0.053566
-0.059469 -0.142261 -0.131457
-0.062094 -0.147380 -0.141568
-0.312808 0.413283 -0.054974
-0.312264 0.416255 -0.059863
0.013139 0.418624 -0.053970
-0.276423 0.422549 -0.049785
-0.059204 -0.142451 -0.129949
-0.060704 -0.145812 -0.126721
-0.055347 -0.137761 -0.129500
-0.057418 -0.138877 -0.139821
-0.286822 0.418588 -0.048299
-0.286692 0.420265 -0.051938
-0.284741 0.416996 -0.045470
-0.278266 0.418511 -0.045357
-0.277097 0.418459 -0.044066
-0.063167 -0.156421 -0.135034
-0.062622 -0.152990 -0.135426
-0.284355 0.419370 -0.050072
-0.292808 0.414878 -0.044843
-0.063222 -0.163423 -0.131251
-0.293820 0.424758 -0.058399
-0.296641 0.419591 -0.052225
-0.061648 -0.173898 -0.131014
-0.309802 0.416853 -0.056556
-0.412471 -0.173694 -0.129225
-0.412154 -0.170395 -0.126166
-0.059214 -0.180746 -0.135555
-0.413070 -0.180246 -0.134631
-0.409756 -0.179846 -0.128828
-0.414261 -0.178508 -0.134934
-0.057430 -0.185637 -0.134586
-0.303186 0.422128 -0.058910
-0.311259 0.417803 -0.059619
-0.058034 -0.183694 -0.128639
-0.057317 -0.186184 -0.135800
-0.057375 -0.185920 -0.135566
-0.059285 -0.182456 -0.127543
-0.054306 -0.195396 -0.132978
0.013294 0.418306 -0.048256
0.008993 0.426049 -0.056712
-0.056500 -0.188616 -0.135893
-0.270470 0.426741 -0.050015
-0.277342 0.430826 -0.056151
-0.050795 -0.204852 -0.142246
-0.048738 -0.208684 -0.131803
-0.047193 -0.218659 -0.139064
-0.050404 -0.206367 -0.125851
-0.047771 -0.216049 -0.132336
-0.047851 -0.214134 -0.132238
-0.047098 -0.217100 -0.130201
-0.047858 -0.232952 -0.129226
-0.047932 -0.236245 -0.124782
-0.050009 -0.243300 -0.129981
-0.048969 -0.237427 -0.132908
-0.051374 -0.246884 -0.130568
-0.052704 -0.252931 -0.135460
-0.051898 -0.248213 -0.131941
-0.052077 -0.253698 -0.130621
-0.051733 -0.248035 -0.133000
-0.054503 -0.256376 -0.137789
-0.050826 -0.246061 -0.130956
-0.053824 -0.258725 -0.135237
0.098709 -0.253736 -0.124198
0.101608 -0.257216 -0.140623
0.114426 -0.257488 -0.143289
0.119230 -0.257217 -0.128958
-0.052763 -0.259145 -0.130487
-0.051325 -0.257758 -0.124196
-0.052901 -0.260714 -0.129950
0.078218 -0.260558 -0.133296
0.082962 -0.256834 -0.121130
0.088394 -0.258095 -0.136146
0.097428 -0.254954 -0.132154
0.122054 -0.257648 -0.131398
0.131039 -0.260827 -0.136444
0.122901 -0.257899 -0.137434
-0.052250 -0.262929 -0.126718
0.051896 -0.267214 -0.131869
0.059381 -0.268329 -0.130762
0.061017 -0.266790 -0.124671
0.062713 -0.264268 -0.140415
0.077773 -0.261421 -0.133401
0.087262 -0.258655 -0.135057
0.136581 -0.264103 -0.136829
0.136907 -0.263498 -0.139350
-0.054823 -0.273757 -0.137723
-0.054962 -0.264060 -0.136504
0.049004 -0.266241 -0.133945
0.043260 -0.265327 -0.139971
0.052396 -0.267362 -0.131773
0.143030 -0.277163 -0.130616
-0.052037 -0.268695 -0.125271
0.135410 -0.269083 -0.128840
0.140396 -0.279827 -0.127205
0.143939 -0.268998 -0.138909
-0.053708 -0.282499 -0.135547
-0.052065 -0.279722 -0.124830
0.050451 -0.271782 -0.132712
0.049608 -0.283087 -0.137639
0.145019 -0.288209 -0.129264
-0.054306 -0.286933 -0.140554
0.053204 -0.273913 -0.129377
0.140493 -0.277796 -0.128463
0.145222 -0.284895 -0.130169
0.052470 -0.289662 -0.138143
0.061375 -0.292993 -0.132916
0.065584 -0.292487 -0.127302
0.147552 -0.293096 -0.131990
0.062537 -0.293998 -0.131772
0.062663 -0.293022 -0.132214
0.147203 -0.301965 -0.131497
-0.053578 -0.296430 -0.141915
-0.049902 -0.306611 -0.139091
0.072720 -0.306596 -0.131824
0.147864 -0.303503 -0.132669
0.060151 -0.311131 -0.142209
0.067137 -0.307708 -0.136722
0.074980 -0.308510 -0.131044
0.073816 -0.314300 -0.132622
-0.045978 -0.316971 -0.130108
0.065063 -0.317462 -0.139116
0.080372 -0.316064 -0.129023
0.075353 -0.308886 -0.130669
0.150816 -0.309099 -0.141456
0.066980 -0.321940 -0.137536
0.065774 -0.323464 -0.137540
0.151388 -0.305916 -0.140103
0.072865 -0.318372 -0.134985
0.070262 -0.321950 -0.135906
0.080220 -0.324896 -0.129784
0.141915 -0.327958 -0.133676
0.143693 -0.319488 -0.130542
-0.042794 -0.321318 -0.129996
0.070556 -0.328153 -0.134399
0.064975 -0.332129 -0.135652
0.072270 -0.332420 -0.133073
0.072222 -0.317372 -0.135305
0.140014 -0.327050 -0.128340
0.136934 -0.336335 -0.131044
0.141446 -0.329495 -0.132471
-0.035784 -0.330205 -0.129313
-0.029934 -0.335978 -0.124755
-0.021555 -0.334397 -0.135781
-0.020466 -0.332296 -0.140750
0.015015 -0.338585 -0.130896
0.061225 -0.335301 -0.135949
0.074710 -0.333310 -0.131588
-0.026659 -0.339837 -0.119806
-0.029280 -0.335073 -0.127390
-0.007222 -0.336123 -0.138418
-0.008126 -0.340599 -0.131274
0.014213 -0.337791 -0.134565
0.055630 -0.003922 -0.145776
0.024443 -0.336469 -0.135570
0.015696 -0.338392 -0.132163
0.022230 -0.335731 -0.137559
0.021470 -0.334922 -0.141416
0.018881 -0.337362 -0.133126
0.022600 -0.335724 -0.137764
0.029498 -0.336490 -0.135872
0.032366 -0.335055 -0.139291
0.038420 -0.336859 -0.135439
0.047930 -0.337349 -0.133444
0.047469 -0.336872 -0.133209
0.050418 -0.331632 -0.141846
0.062015 -0.333665 -0.135204
0.068659 -0.333279 -0.133720
0.074724 -0.337499 -0.130681
0.077566 -0.338908 -0.129361
0.081137 -0.334170 -0.128774
0.137507 -0.336403 -0.131499
0.129836 -0.342218 -0.123754
-0.002700 -0.341201 -0.131607
-0.007681 -0.340273 -0.132039
-0.001449 -0.342685 -0.128303
0.062250 -0.342400 -0.128949
0.055789 -0.335163 -0.136092
0.066698 -0.340750 -0.129519
0.067666 -0.340878 -0.129858
0.066767 -0.340695 -0.129421
0.081396 -0.343907 -0.127704
0.084412 -0.334710 -0.127146
0.080414 -0.336821 -0.128691
0.134295 -0.349849 -0.139876
0.136713 -0.344391 -0.137878
0.080712 -0.343731 -0.127477
0.082536 -0.345711 -0.126130
0.085478 -0.345963 -0.126014
0.127198 -0.349613 -0.125050
0.131378 -0.350082 -0.130541
0.128468 -0.348644 -0.127719
0.127777 -0.355903 -0.136717
0.127294 -0.351282 -0.128216
0.121747 -0.358137 -0.131052
0.115736 -0.362138 -0.130844
0.120498 -0.364041 -0.133452
0.123583 -0.357654 -0.130949
0.107860 -0.376567 -0.134195
0.111885 -0.366850 -0.131569
0.115702 -0.364092 -0.132513
0.100675 -0.378008 -0.130223
0.112187 -0.371090 -0.135543
0.110375 -0.371117 -0.135817
0.099983 -0.384905 -0.131557
0.098503 -0.385834 -0.129294
0.103628 -0.386999 -0.140543
0.096246 -0.394649 -0.132508
0.095341 -0.395283 -0.132306
0.098663 -0.385520 -0.129269
0.100751 -0.384441 -0.132893
0.096893 -0.394196 -0.136952
0.093035 -0.399183 -0.138366
0.093399 -0.398765 -0.132489
0.097797 -0.392979 -0.135706
0.099408 -0.391242 -0.135605
0.089642 -0.404003 -0.135905
0.089196 -0.404620 -0.134242
0.088964 -0.404196 -0.139541
0.082497 -0.412372 -0.131988
0.081872 -0.413317 -0.133359
0.069430 -0.424825 -0.141288
0.079515 -0.415106 -0.137092
0.072378 -0.425116 -0.134062
0.068986 -0.428456 -0.133607
0.051813 -0.448912 -0.132157
0.064452 -0.432683 -0.136048
0.051060 -0.449126 -0.132087
0.059955 -0.437406 -0.135228
0.050535 -0.449378 -0.134488
0.045526 -0.455841 -0.130653
0.046917 -0.452792 -0.137150
0.051736 -0.452648 -0.123638
0.042401 -0.457197 -0.136964
0.029262 -0.469356 -0.138082
0.022118 -0.479631 -0.129924
0.017345 -0.482668 -0.135256
0.054073 -0.459809 -0.091100
0.007377 -0.490741 -0.138504
0.055064 -0.457939 -0.092711
0.056786 -0.455731 -0.091264
0.057822 -0.450790 -0.100213
0.059804 -0.449682 -0.095360
0.065130 -0.442535 -0.091831
0.059638 -0.450755 -0.094246
-0.152536 -0.324978 0.035894
-0.126973 0.154739 -0.005015
-0.106249 -0.321527 0.025497
-0.105873 -0.321806 0.025835
-0.097297 -0.327830 0.037570
-0.111713 -0.326643 0.037723
-0.120415 -0.324700 0.033098
-0.115206 -0.321347 0.027670
-0.129300 -0.326906 0.034898
-0.125628 -0.322039 0.027863
-0.141816 -0.325724 0.032852
-0.199832 -0.375104 0.183399
-0.213270 -0.371146 0.185911
-0.214182 -0.378969 0.191375
-0.342884 -0.377899 0.187909
-0.342185 -0.380110 0.187295
-0.355218 -0.370268 0.184215
-0.358414 -0.376924 0.180439
-0.211662 -0.370913 0.184639
-0.214841 -0.379868 0.192948
-0.225245 -0.365452 0.185846
-0.351254 -0.373801 0.184735
-0.344755 -0.369906 0.189036
-0.340700 -0.371324 0.190449
-0.343698 -0.374532 0.188047
-0.342586 -0.377161 0.187750
-0.358148 -0.361516 0.184409
-0.356090 -0.368139 0.184098
-0.218969 -0.371399 0.189229
-0.393499 0.090548 -0.060980
-0.391491 0.082627 -0.057913
0.017399 0.103922 -0.059301
-0.009745 0.486121 -0.174919
-0.006853 0.486412 -0.177343
-0.006045 0.486087 -0.177631
-0.005822 0.485806 -0.177725
-0.006034 0.485845 -0.177610
-0.005939 0.483695 -0.175866
0.002642 0.484837 -0.179262
0.007347 0.483945 -0.178646
-0.001207 0.482742 -0.176432
0.013718 0.481411 -0.177070
0.012148 0.482631 -0.178651
0.014116 0.482732 -0.179020
0.026766 0.478010 -0.177047
0.031114 0.476931 -0.179636
0.033139 0.476514 -0.181154
0.033194 0.475470 -0.179579
0.030056 0.474743 -0.175130
0.048857 0.465089 -0.179661
0.049419 0.466162 -0.183738
0.048803 0.462675 -0.173848
0.052708 0.463042 -0.181318
0.059211 0.460112 -0.185834
0.056389 0.463468 -0.187937
0.063064 0.455055 -0.176372
0.058183 0.461273 -0.188277
0.057737 0.462357 -0.189756
0.061953 0.455759 -0.177553
0.067137 0.455490 -0.184767
0.059011 0.456182 -0.173838
0.070926 0.451990 -0.181582
0.072300 0.448755 -0.175333
0.075376 0.449568 -0.181708
0.074992 0.450793 -0.185907
0.090824 0.441703 -0.181966
0.090844 0.441907 -0.184197
0.093360 0.440296 -0.183163
0.089352 0.441700 -0.180479
0.093173 0.437444 -0.177498
0.099786 0.434195 -0.179617
0.091153 0.437541 -0.176725
0.113734 0.428680 -0.186761
0.107557 0.432055 -0.185341
0.116053 0.422465 -0.183528
0.110446 0.419049 -0.179083
0.106560 0.428815 -0.180208
0.115044 0.423281 -0.183425
0.107299 0.427319 -0.179555
0.114778 0.413965 -0.180854
0.115825 0.421778 -0.182516
0.116829 0.416405 -0.182458
0.108908 0.400534 -0.174968
0.114718 0.408992 -0.180822
0.112284 0.398887 -0.179718
0.116574 0.406829 -0.182612
0.105671 0.399037 -0.170950
0.109219 0.396324 -0.175684
0.114024 0.393717 -0.181559
0.114912 0.399309 -0.182510
0.108257 0.393424 -0.174291
0.108944 0.391596 -0.176135
0.110335 0.384732 -0.179661
0.110301 0.383893 -0.179397
0.111962 0.382177 -0.180800
0.114837 0.379112 -0.179889
0.115431 0.376946 -0.180974
0.115626 0.372156 -0.177487
0.114830 0.379188 -0.181747
0.115317 0.372423 -0.177399
0.118800 0.362216 -0.174688
0.115409 0.372382 -0.177624
0.123669 0.356918 -0.185466
0.117791 0.368347 -0.174954
0.121773 0.353020 -0.180194
0.124815 0.350787 -0.184351
0.123156 0.352443 -0.182074
0.116596 0.341766 -0.174508
0.126644 0.351329 -0.186100
0.115904 0.341565 -0.172914
0.124055 0.347096 -0.182371
0.126650 0.335133 -0.184486
0.000802 0.435376 -0.056894
-0.286163 0.426817 -0.056658
-0.285779 0.433760 -0.061089
0.119812 0.330095 -0.179545
0.124258 0.333175 -0.183406
0.124118 0.343562 -0.182344
-0.284120 0.431206 -0.058615
0.001605 0.434186 -0.041957
0.119419 0.332629 -0.178443
0.125900 0.327118 -0.185040
0.116670 0.321716 -0.180274
0.123692 0.317160 -0.186491
0.114654 0.323537 -0.178474
0.113179 0.319246 -0.179087
0.114308 0.317971 -0.180674
0.122055 0.310513 -0.189416
0.123423 0.326575 -0.182602
0.085396 0.303954 -0.180904
0.093553 0.307570 -0.182117
0.094320 0.315415 -0.176560
0.105627 0.310386 -0.183496
0.107802 0.314654 -0.180904
0.106940 0.316126 -0.180048
0.115558 0.311977 -0.185308
-0.008050 0.442940 -0.050321
0.086565 0.304981 -0.181423
0.083659 0.302040 -0.180973
0.087934 0.302442 -0.183061
0.097295 0.315331 -0.177747
0.101712 0.308305 -0.184561
0.105563 0.307771 -0.187165
0.108143 0.313110 -0.181525
0.104271 0.306387 -0.187753
0.004369 0.433212 -0.050594
-0.001501 0.438340 -0.049968
0.082687 0.298013 -0.183759
0.082482 0.312607 -0.171691
0.076311 0.293912 -0.178161
0.076166 0.297836 -0.176674
0.081387 0.298192 -0.181514
0.080691 0.295629 -0.185473
0.078138 0.297063 -0.179587
0.078570 0.289278 -0.186925
0.075590 0.278666 -0.184035
0.074056 0.275271 -0.178554
0.074748 0.269360 -0.185249
0.073724 0.270119 -0.176540
0.075802 0.278723 -0.184355
0.074380 0.283387 -0.175074
0.074248 0.275349 -0.178794
0.075616 0.263920 -0.184520
0.077220 0.256259 -0.190759
0.075643 0.259857 -0.182815
0.075646 0.264255 -0.185339
-0.260460 0.438548 -0.047610
-0.268301 0.433390 -0.051015
0.078998 0.249978 -0.181175
0.079820 0.246751 -0.176053
0.078977 0.250300 -0.184902
0.082111 0.239163 -0.180041
0.082917 0.232964 -0.176017
0.087423 0.227526 -0.189959
0.086064 0.230648 -0.189031
0.087919 0.225600 -0.190557
0.085837 0.224658 -0.179479
0.084992 0.225834 -0.178517
0.087760 0.213734 -0.177559
0.085858 0.225592 -0.180466
0.091125 0.205575 -0.183432
0.087294 0.216050 -0.177784
0.091822 0.204602 -0.185120
0.089126 0.206461 -0.175031
0.086696 0.210114 -0.169283
0.092173 0.196681 -0.189033
0.089350 0.192743 -0.174418
0.091088 0.202554 -0.184427
0.087465 0.189015 -0.178950
0.090207 0.191378 -0.188354
0.085565 0.184482 -0.175323
0.086653 0.184962 -0.179064
0.071658 0.175265 -0.182065
0.078215 0.178264 -0.179161
0.084771 0.182966 -0.176319
0.079656 0.180200 -0.172706
0.073043 0.175044 -0.192644
0.074845 0.175101 -0.171881
0.069038 0.173957 -0.183016
0.052813 0.167646 -0.184312
0.065881 0.171816 -0.190285
0.046736 0.162145 -0.180565
0.053539 0.164479 -0.174726
0.040489 0.155704 -0.184040
0.042916 0.156241 -0.174794
0.038111 0.148493 -0.180002
0.037611 0.147777 -0.179190
0.041780 0.156117 -0.189406
0.041801 0.156078 -0.175510
0.036566 0.147565 -0.187210
0.039706 0.146242 -0.173433
0.037201 0.136353 -0.182467
0.035680 0.140537 -0.183915
0.042826 0.130773 -0.173188
0.040564 0.128342 -0.183389
0.043075 0.122191 -0.185575
0.038625 0.129906 -0.182130
0.048489 0.112588 -0.183699
0.048684 0.114618 -0.174329
0.043047 0.123911 -0.175701
0.046269 0.122660 -0.170769
0.052803 0.102232 -0.187286
0.053863 0.103238 -0.179164
0.053049 0.107266 -0.174151
0.050043 0.111973 -0.176266
0.053055 0.103333 -0.181890
0.053922 0.099335 -0.188643
0.053556 0.103165 -0.182139
0.058147 0.076310 -0.186632
0.058412 0.084006 -0.177062
0.058818 0.083418 -0.177329
0.058161 0.084993 -0.179580
0.057955 0.087778 -0.177295
0.057051 0.080773 -0.187422
0.058897 0.073984 -0.184811
0.059869 0.077623 -0.176262
0.060169 0.062101 -0.184848
0.060308 0.064775 -0.186087
0.060646 0.056551 -0.178338
0.061099 0.049965 -0.181081
0.060880 0.057745 -0.184418
0.060087 0.041963 -0.174858
0.060166 0.039993 -0.172866
0.060484 0.036631 -0.172680
0.061573 0.042945 -0.183236
0.061042 0.038079 -0.176718
0.061807 0.037548 -0.183273
0.061988 0.039424 -0.183794
0.060707 0.027286 -0.178537
0.060307 0.032087 -0.175309
0.058708 0.019906 -0.174213
0.057936 0.011772 -0.181332
0.060861 0.027634 -0.180835
0.057722 0.010967 -0.190914
0.058768 0.014864 -0.176539
0.057197 0.003737 -0.176384
0.056274 -0.001267 -0.178988
0.057006 0.002227 -0.178659
0.054711 -0.007699 -0.177905
0.055289 -0.006223 -0.179028
0.054665 -0.009584 -0.176071
0.043553 -0.028027 -0.177938
0.043537 -0.026378 -0.186332
0.037457 -0.037176 -0.181669
0.043780 -0.027633 -0.179643
0.038820 -0.036903 -0.179064
0.042834 -0.030875 -0.178636
0.035042 -0.047105 -0.178784
0.035695 -0.048479 -0.175270
0.036019 -0.046643 -0.175067
0.035405 -0.047089 -0.177007
0.026392 -0.055654 -0.187987
0.024378 -0.065411 -0.178873
0.028981 -0.053743 -0.184690
0.029094 -0.062861 -0.174870
0.021962 -0.069692 -0.174784
0.026634 -0.068550 -0.169467
0.013177 -0.071650 -0.186115
0.008281 -0.073697 -0.193283
0.010591 -0.080311 -0.175689
0.007977 -0.078451 -0.184633
0.003217 -0.085399 -0.186845
0.010015 -0.076342 -0.184267
0.010243 -0.076203 -0.184871
-0.017035 -0.104096 -0.183444
-0.020595 -0.106642 -0.176178
-0.013731 -0.102715 -0.182925
-0.010844 -0.100990 -0.184325
-0.037514 -0.109565 -0.183993
-0.014255 -0.104996 -0.175769
-0.025994 -0.107801 -0.178850
-0.015027 -0.103305 -0.180931
-0.045095 -0.112541 -0.179025
-0.043929 -0.113600 -0.174943
-0.046347 -0.112382 -0.182331
-0.027915 -0.107865 -0.184077
-0.030831 -0.111841 -0.171001
-0.025306 -0.106828 -0.187926
-0.045607 -0.112420 -0.183044
-0.052658 -0.117121 -0.175536
-0.050014 -0.114366 -0.181016
-0.058317 -0.120072 -0.182082
-0.061400 -0.124349 -0.180364
-0.061991 -0.132617 -0.174379
-0.066224 -0.134872 -0.186535
-0.066849 -0.137558 -0.187754
-0.063297 -0.141424 -0.178548
-0.058944 -0.159161 -0.179043
-0.060609 -0.158121 -0.182752
-0.059937 -0.162369 -0.182705
-0.058458 -0.168245 -0.180182
-0.059036 -0.176518 -0.179239
-0.059074 -0.175457 -0.180173
-0.059377 -0.176096 -0.183533
-0.061053 -0.184374 -0.185563
-0.061238 -0.184486 -0.185646
-0.060735 -0.183410 -0.185453
-0.059054 -0.184038 -0.177730
-0.058644 -0.194168 -0.174148
-0.063600 -0.194105 -0.191434
-0.062033 -0.203018 -0.186329
-0.061231 -0.198023 -0.184278
-0.059954 -0.203757 -0.181652
-0.058329 -0.201938 -0.177080
-0.063033 -0.210086 -0.188150
-0.060161 -0.208250 -0.182943
-0.056149 -0.214723 -0.175656
-0.059078 -0.221264 -0.180015
-0.056442 -0.221845 -0.175712
-0.058896 -0.221400 -0.179726
-0.060501 -0.230508 -0.180493
-0.059767 -0.225873 -0.180283
-0.056942 -0.217110 -0.177177
-0.058626 -0.222861 -0.179147
-0.058724 -0.229974 -0.177873
-0.058395 -0.231098 -0.176370
-0.058531 -0.230065 -0.177740
-0.060712 -0.227291 -0.181981
-0.058496 -0.228464 -0.178481
-0.064595 -0.241791 -0.184123
-0.062282 -0.238669 -0.181703
-0.062393 -0.254736 -0.181690
-0.066734 -0.247181 -0.187642
-0.062074 -0.250899 -0.179744
-0.060719 -0.260609 -0.175186
0.024151 -0.254817 -0.178092
-0.062353 -0.254598 -0.181504
0.007232 -0.254260 -0.191046
0.016289 -0.260295 -0.173240
0.020043 -0.256196 -0.171665
0.033955 -0.257978 -0.178106
0.032340 -0.257645 -0.179605
0.013384 -0.261536 -0.173793
0.009121 -0.260291 -0.181955
0.010025 -0.256314 -0.186006
0.007549 -0.256823 -0.186663
0.041378 -0.263919 -0.177319
0.036363 -0.261329 -0.186520
-0.063408 -0.263121 -0.188136
0.000794 -0.269676 -0.182232
0.132954 -0.265593 -0.175489
0.143677 -0.267361 -0.174673
-0.061306 -0.271541 -0.190315
-0.061138 -0.268464 -0.179393
-0.060975 -0.270348 -0.178473
-0.000105 -0.267066 -0.185699
0.147547 -0.271646 -0.177489
0.144082 -0.271509 -0.182821
-0.060996 -0.269754 -0.180849
-0.001947 -0.270856 -0.184538
0.151585 -0.275766 -0.178585
0.146649 -0.276470 -0.185282
0.151048 -0.281744 -0.183807
-0.006375 -0.275433 -0.187074
0.005756 -0.288928 -0.177912
0.154972 -0.286799 -0.178468
-0.048474 -0.289351 -0.187343
0.003230 -0.291786 -0.179622
0.150463 -0.283576 -0.185393
0.150713 -0.285438 -0.186017
0.156505 -0.294205 -0.176640
-0.053916 -0.292851 -0.173471
-0.048073 -0.299577 -0.173260
-0.041783 -0.298446 -0.182449
-0.008637 -0.307478 -0.177614
-0.000217 -0.296718 -0.181693
0.007988 -0.287531 -0.176602
0.152424 -0.296860 -0.181003
-0.039008 -0.305290 -0.174426
-0.015490 -0.303876 -0.181500
-0.015483 -0.303833 -0.181821
-0.010527 -0.300492 -0.184392
-0.006209 -0.302205 -0.181173
-0.006636 -0.302040 -0.181572
-0.001878 -0.302977 -0.179679
-0.000250 -0.302355 -0.178717
0.149645 -0.304319 -0.181921
0.147635 -0.303813 -0.185903
0.157862 -0.295307 -0.172671
0.151369 -0.292563 -0.184949
0.155847 -0.295038 -0.176415
-0.032705 -0.304171 -0.181102
-0.033832 -0.303931 -0.180518
-0.027898 -0.304558 -0.181343
-0.031357 -0.308827 -0.173935
-0.030293 -0.309573 -0.172500
-0.028258 -0.306487 -0.178458
-0.019983 -0.300843 -0.185860
-0.009000 -0.299006 -0.183835
-0.010723 -0.300001 -0.184068
-0.014401 -0.299732 -0.184791
-0.001445 -0.309616 -0.175949
-0.000155 -0.310217 -0.174376
-0.000856 -0.305404 -0.177507
0.147306 -0.313517 -0.175630
0.153005 -0.302555 -0.177181
-0.008350 -0.309456 -0.176881
0.148912 -0.311868 -0.172628
0.148312 -0.306685 -0.180770
0.144658 -0.316918 -0.177186
0.142001 -0.323529 -0.176634
0.141648 -0.322158 -0.177930
0.131382 -0.340233 -0.174847
0.131690 -0.334277 -0.180669
0.131906 -0.331937 -0.184867
0.135937 -0.323119 -0.187652
0.137956 -0.326530 -0.179102
0.130193 -0.332751 -0.188478
0.125539 -0.342064 -0.186442
0.119174 -0.352826 -0.184555
0.117824 -0.354408 -0.184554
0.123356 -0.348767 -0.181429
0.121600 -0.351053 -0.182144
0.118876 -0.355574 -0.180261
0.117550 -0.357134 -0.180730
0.123429 -0.351211 -0.178243
0.110005 -0.366351 -0.180486
0.106770 -0.366348 -0.187333
0.109677 -0.368594 -0.179794
0.091340 -0.384150 -0.185344
0.095100 -0.379734 -0.184363
0.096517 -0.381829 -0.180005
0.091363 -0.385066 -0.184107
0.085110 -0.391565 -0.182497
0.082850 -0.396615 -0.176108
0.080799 -0.395006 -0.183630
0.093430 -0.385344 -0.178119
0.083181 -0.396595 -0.174700
0.063126 -0.416832 -0.177074
0.066152 -0.411472 -0.180169
0.069859 -0.405798 -0.185517
0.065726 -0.413461 -0.177204
0.068460 -0.408611 -0.181477
0.069105 -0.409819 -0.175917
0.058880 -0.417049 -0.184409
0.056379 -0.419849 -0.185175
0.049835 -0.428809 -0.185297
0.057592 -0.422588 -0.179397
0.066575 -0.414174 -0.171869
0.051001 -0.428783 -0.184173
0.049305 -0.428183 -0.187021
0.055816 -0.425466 -0.178532
0.053495 -0.429586 -0.173904
0.043788 -0.440128 -0.178095
0.031163 -0.446925 -0.183496
0.042497 -0.440936 -0.179255
0.043633 -0.440381 -0.177309
0.036277 -0.447041 -0.173921
0.029921 -0.449000 -0.183081
0.035787 -0.448168 -0.173762
0.022477 -0.455500 -0.178830
