0.060899 0.070549 -0.239500
0.065357 0.087282 -0.226770
0.060078 0.085224 -0.229426
0.064146 0.079313 -0.233029
0.045366 -0.026110 -0.135560
0.042928 -0.012439 -0.139168
0.053654 -0.017482 -0.131394
0.041158 -0.029834 -0.139225
0.036751 -0.024929 -0.146161
0.039338 -0.028771 -0.134704
0.039870 -0.029610 -0.141572
0.036968 -0.047098 -0.146439
0.037863 -0.033558 -0.140116
0.036430 -0.037948 -0.140034
0.032736 -0.047429 -0.140122
0.037515 -0.053168 -0.134572
0.042645 -0.052497 -0.140357
0.040792 -0.051640 -0.134043
0.034135 -0.064971 -0.137844
-0.127160 -0.120807 -0.007418
-0.131667 -0.133245 0.004167
-0.309376 -0.127227 0.002476
0.034727 -0.058324 -0.146175
0.038415 -0.071667 -0.138031
0.035223 -0.061722 -0.137874
-0.301832 -0.121881 -0.000770
-0.306997 -0.127680 -0.006097
0.030344 -0.071672 -0.136072
0.025226 -0.063244 -0.140495
-0.312301 -0.124622 -0.011518
-0.131547 -0.116705 -0.007028
-0.121892 -0.120975 -0.010293
-0.120652 -0.121822 -0.012117
0.022264 -0.079256 -0.132381
-0.135187 -0.110176 -0.007014
-0.290462 -0.111527 -0.003795
-0.298713 -0.128418 -0.000582
-0.309313 -0.120393 -0.014041
0.018767 -0.083146 -0.139859
-0.129386 -0.109030 0.001625
-0.125419 -0.114084 -0.007778
-0.131848 -0.114819 -0.000495
0.029212 -0.084324 -0.130643
0.016613 -0.081121 -0.136372
0.026962 -0.081433 -0.139130
0.019221 -0.090354 -0.135987
0.017101 -0.097095 -0.135390
0.023649 -0.082759 -0.140003
0.015567 -0.098444 -0.130251
-0.282085 -0.114410 -0.002391
-0.299866 -0.112840 -0.005019
-0.297242 -0.108771 -0.006777
-0.305336 -0.115955 -0.006125
0.020045 -0.100773 -0.134695
0.020007 -0.102788 -0.134058
0.005840 -0.097579 -0.136219
0.004132 -0.109416 -0.137717
0.000035 -0.109373 -0.139482
-0.006678 -0.116053 -0.145966
0.000102 -0.106236 -0.129172
-0.018068 -0.110357 -0.142186
-0.010798 -0.110020 -0.138424
-0.007050 -0.114985 -0.129893
-0.008076 -0.110697 -0.132367
0.002861 -0.112188 -0.136625
-0.006386 -0.107458 -0.135546
-0.021536 -0.115920 -0.130516
-0.020780 -0.109823 -0.137611
-0.022861 -0.125327 -0.139971
-0.006849 -0.117441 -0.128691
-0.017498 -0.123102 -0.138173
-0.041473 -0.125642 -0.137298
-0.040648 -0.121972 -0.130216
-0.046806 -0.129171 -0.137847
-0.037169 -0.120174 -0.147117
-0.036529 -0.127391 -0.140131
-0.032108 -0.124263 -0.139593
-0.050539 -0.131649 -0.142487
-0.049433 -0.125433 -0.140516
-0.052125 -0.138464 -0.138314
-0.043601 -0.132553 -0.135459
-0.045050 -0.133385 -0.144764
-0.048285 -0.134611 -0.136487
-0.055896 -0.140807 -0.145029
-0.057724 -0.136594 -0.132818
-0.061265 -0.137762 -0.146287
-0.058052 -0.141773 -0.138872
-0.062217 -0.144490 -0.133899
-0.301429 -0.114403 -0.004802
-0.127709 -0.106723 -0.003373
-0.059414 -0.156970 -0.144042
-0.059279 -0.159180 -0.133946
-0.133943 -0.111015 -0.004085
-0.061894 -0.164031 -0.140160
-0.055954 -0.164628 -0.144844
-0.060614 -0.165812 -0.135594
-0.140465 -0.111589 0.000182
-0.293082 -0.109857 -0.003367
-0.054222 -0.166182 -0.139021
-0.064281 -0.164753 -0.137062
-0.290220 -0.111123 -0.009005
-0.291446 -0.110639 -0.010531
-0.127385 -0.096158 -0.007221
-0.124948 -0.109667 -0.003365
-0.278055 -0.102392 -0.004806
-0.281635 -0.103432 -0.004633
-0.126876 -0.097087 -0.012839
-0.407550 -0.176286 -0.130504
-0.128871 -0.096049 -0.011235
-0.063838 -0.168410 -0.146605
-0.409794 -0.181333 -0.138915
-0.405491 -0.180848 -0.135443
-0.419003 -0.175385 -0.145834
-0.124680 -0.095342 -0.005515
-0.415554 -0.182023 -0.144170
-0.143108 -0.101716 -0.006517
-0.052556 -0.183914 -0.133860
-0.057191 -0.203041 -0.147300
-0.050272 -0.193262 -0.145347
-0.143668 -0.095991 -0.000912
-0.283526 -0.097369 -0.001944
-0.279728 -0.093080 -0.010267
-0.293122 -0.100596 0.000466
-0.045745 -0.203043 -0.133958
-0.123998 -0.089720 -0.002372
-0.121154 -0.082626 -0.008141
-0.130516 -0.089609 -0.001704
-0.142098 -0.093132 -0.003220
-0.045065 -0.205240 -0.137166
-0.051791 -0.196994 -0.145524
-0.046788 -0.206438 -0.136312
-0.048531 -0.208771 -0.134027
-0.051984 -0.215262 -0.131628
-0.049205 -0.212761 -0.143686
-0.044009 -0.212278 -0.142023
-0.046963 -0.216706 -0.139935
-0.043559 -0.213365 -0.142434
-0.041630 -0.214502 -0.133850
-0.041424 -0.227066 -0.145541
-0.045819 -0.226142 -0.131943
-0.040051 -0.235862 -0.133777
-0.042825 -0.228482 -0.145355
-0.051380 -0.228059 -0.132486
-0.050717 -0.229448 -0.142133
-0.046107 -0.227454 -0.134713
-0.048104 -0.236108 -0.132946
-0.055832 -0.243718 -0.133280
-0.044060 -0.235600 -0.129940
-0.046460 -0.236429 -0.143873
-0.056460 -0.251118 -0.129879
-0.056814 -0.253559 -0.137835
-0.045002 -0.246146 -0.138557
-0.044610 -0.244342 -0.140589
-0.056854 -0.254616 -0.144315
0.102331 -0.258347 -0.137924
0.097151 -0.255336 -0.130024
0.094814 -0.252209 -0.141449
0.101194 -0.252102 -0.144223
0.097254 -0.261442 -0.134558
0.104894 -0.248373 -0.139810
0.106919 -0.256474 -0.135717
0.120166 -0.253782 -0.137090
-0.059760 -0.267018 -0.145489
-0.053556 -0.248405 -0.133910
-0.058495 -0.258162 -0.138132
0.079270 -0.265263 -0.131657
0.083572 -0.265209 -0.139203
0.095830 -0.260152 -0.139353
0.120359 -0.264321 -0.133730
0.117827 -0.252998 -0.139648
-0.061330 -0.258113 -0.135619
0.039366 -0.261102 -0.135477
0.049498 -0.261536 -0.128684
0.049511 -0.257955 -0.137065
0.061858 -0.261570 -0.135013
0.060133 -0.264854 -0.137349
0.070654 -0.265176 -0.131732
0.061090 -0.270566 -0.133929
0.076063 -0.264744 -0.147099
0.093511 -0.261430 -0.142091
0.080617 -0.271540 -0.139193
0.136136 -0.261972 -0.141313
0.125698 -0.256862 -0.134044
0.127579 -0.263606 -0.143047
0.129446 -0.257015 -0.143207
0.142961 -0.259117 -0.132559
0.137192 -0.262156 -0.136084
0.142147 -0.262282 -0.139325
-0.049492 -0.265198 -0.133874
0.050141 -0.263459 -0.134479
0.050521 -0.267428 -0.141728
0.083902 -0.271425 -0.145691
0.143910 -0.263969 -0.142183
-0.057168 -0.274361 -0.141579
0.041614 -0.269729 -0.136430
0.043326 -0.271034 -0.129104
0.046535 -0.280081 -0.134199
0.141980 -0.264692 -0.141860
0.144043 -0.274237 -0.130089
0.143816 -0.272761 -0.130898
0.154729 -0.272402 -0.144122
-0.053323 -0.288218 -0.144119
-0.047227 -0.283204 -0.139371
0.046143 -0.274673 -0.141880
0.046544 -0.270691 -0.135828
0.153969 -0.272033 -0.135338
0.148729 -0.273479 -0.138886
0.151839 -0.285075 -0.139398
0.043263 -0.291977 -0.137702
0.055307 -0.285395 -0.140008
0.061898 -0.286897 -0.135215
0.049374 -0.289298 -0.136513
0.147901 -0.291720 -0.135536
0.145607 -0.283254 -0.132540
0.145171 -0.282614 -0.135283
0.155804 -0.287105 -0.143244
0.146912 -0.283898 -0.134435
-0.057498 -0.283188 -0.144194
-0.058987 -0.293261 -0.130560
-0.050270 -0.285422 -0.137289
0.049568 -0.291586 -0.142180
0.058840 -0.290175 -0.140070
0.150694 -0.294907 -0.135828
0.146580 -0.287039 -0.132427
0.054995 -0.291856 -0.142826
0.064366 -0.301597 -0.138825
0.148780 -0.300495 -0.140684
0.145781 -0.287413 -0.138548
-0.048794 -0.307297 -0.143963
-0.048617 -0.295057 -0.140776
-0.051531 -0.300860 -0.140220
-0.056816 -0.297628 -0.140659
0.064590 -0.303718 -0.137953
0.055769 -0.304042 -0.139912
0.070449 -0.298079 -0.131257
0.061393 -0.301289 -0.132477
-0.050930 -0.312583 -0.144343
0.057530 -0.308971 -0.141123
0.145464 -0.299195 -0.129071
0.155452 -0.299208 -0.135116
-0.050327 -0.302120 -0.139789
-0.051265 -0.307696 -0.141536
0.070016 -0.304295 -0.142922
0.152444 -0.304401 -0.139609
0.060613 -0.316382 -0.136489
0.064929 -0.315409 -0.143939
0.145464 -0.324274 -0.139988
-0.048293 -0.315143 -0.130601
-0.041215 -0.330241 -0.136228
-0.044492 -0.324653 -0.135389
0.070147 -0.325081 -0.142208
0.060107 -0.326623 -0.144416
0.150778 -0.318543 -0.130728
-0.031150 -0.334413 -0.136908
-0.026859 -0.325003 -0.142213
-0.036763 -0.330766 -0.143406
-0.033924 -0.329843 -0.135210
-0.024044 -0.333165 -0.141515
0.058486 -0.324779 -0.146055
0.058087 -0.334823 -0.139742
0.062126 -0.322431 -0.136496
0.141902 -0.333980 -0.140174
-0.026285 -0.328931 -0.138420
-0.036772 -0.324096 -0.128881
-0.020385 -0.332503 -0.138901
-0.008615 -0.336878 -0.139867
-0.013109 -0.340307 -0.141418
-0.015492 -0.331215 -0.144338
-0.019012 -0.330307 -0.144374
-0.012876 -0.332067 -0.139428
-0.003279 -0.330317 -0.144341
-0.001160 -0.329855 -0.135021
0.014365 -0.330085 -0.137227
0.009031 -0.335730 -0.137136
0.026656 -0.331281 -0.144773
0.021497 -0.331359 -0.145455
0.040417 -0.329405 -0.141104
0.037721 -0.341182 -0.132832
0.037830 -0.341525 -0.136506
0.049911 -0.329645 -0.147048
0.046412 -0.330579 -0.146046
0.055338 -0.329192 -0.133875
0.062377 -0.333635 -0.135720
0.058501 -0.341573 -0.130549
0.071978 -0.331965 -0.135282
0.145418 -0.331805 -0.131960
0.140509 -0.341206 -0.141919
0.141941 -0.328654 -0.137231
0.000858 -0.339345 -0.146012
-0.004305 -0.340628 -0.141011
-0.001321 -0.335959 -0.139430
0.005964 -0.344067 -0.131583
-0.000682 -0.330943 -0.134705
0.010577 -0.341883 -0.133179
0.005797 -0.335073 -0.138681
0.018117 -0.336715 -0.139894
0.026639 -0.332057 -0.147192
0.032317 -0.339484 -0.130721
0.046103 -0.339711 -0.132640
0.046818 -0.336680 -0.134322
0.051074 -0.336000 -0.139798
0.052575 -0.333929 -0.140083
0.065124 -0.341597 -0.138801
0.142407 -0.337878 -0.142276
0.131169 -0.333656 -0.142961
0.142461 -0.338614 -0.135000
0.130744 -0.343828 -0.137773
0.132888 -0.348690 -0.132210
0.128818 -0.350888 -0.138730
0.132358 -0.353551 -0.145437
0.120228 -0.355914 -0.132761
0.124040 -0.367498 -0.137427
0.124435 -0.363372 -0.139366
0.119875 -0.365904 -0.142398
0.106900 -0.365850 -0.138596
0.110725 -0.387216 -0.134009
0.097522 -0.399037 -0.134959
0.097231 -0.389362 -0.140967
0.096159 -0.403815 -0.140442
0.090634 -0.397844 -0.134640
0.090275 -0.409546 -0.143347
0.078457 -0.419151 -0.138463
0.075459 -0.408224 -0.145201
0.076144 -0.410658 -0.143393
0.074092 -0.412915 -0.147469
0.071269 -0.427121 -0.134330
0.073470 -0.408696 -0.140192
0.073733 -0.425452 -0.131619
0.070933 -0.426858 -0.140670
0.078058 -0.422633 -0.136195
0.066564 -0.428649 -0.136940
0.072709 -0.432367 -0.131375
0.074468 -0.424650 -0.139594
0.070011 -0.433940 -0.134830
0.057969 -0.428334 -0.138419
0.060281 -0.435344 -0.136646
0.066082 -0.437592 -0.141994
0.061053 -0.436545 -0.130418
0.055637 -0.443417 -0.136083
0.053994 -0.447955 -0.142415
0.042459 -0.451214 -0.140459
0.054987 -0.451008 -0.135844
0.054805 -0.452096 -0.131926
0.038511 -0.460748 -0.137260
0.047437 -0.459562 -0.137028
0.030063 -0.467770 -0.138719
0.034651 -0.453858 -0.146850
0.022933 -0.466499 -0.132588
0.029259 -0.466474 -0.134525
0.020956 -0.467515 -0.132487
0.022271 -0.462931 -0.131994
0.021700 -0.475693 -0.141526
0.029427 -0.477145 -0.138146
0.008438 -0.479133 -0.138346
0.018311 -0.478997 -0.132311
0.026424 -0.477464 -0.135933
0.006413 -0.483197 -0.138866
0.020818 -0.485325 -0.142046
0.014610 -0.491114 -0.138804
0.021861 -0.472556 -0.145730
0.017174 -0.482631 -0.140510
0.010293 -0.496519 -0.141799
-0.412506 -0.109395 -0.094281
0.001377 -0.492092 -0.137224
0.001257 -0.498125 -0.132400
-0.408235 -0.113249 -0.088414
-0.408740 -0.106436 -0.095658
0.009400 -0.496475 -0.132035
0.027199 -0.095100 -0.095306
0.025476 -0.104978 -0.096220
0.019946 -0.111457 -0.086136
0.016885 -0.107117 -0.093199
0.017939 -0.104509 -0.097189
-0.413141 -0.104749 -0.089617
-0.413282 -0.099652 -0.098836
-0.008785 -0.103942 -0.165599
-0.013461 -0.112993 -0.157978
-0.027387 -0.115733 -0.165560
-0.022336 -0.120459 -0.157139
-0.017704 -0.112160 -0.158577
-0.024262 -0.113877 -0.165290
-0.039288 -0.122217 -0.157704
-0.051808 -0.118704 -0.159859
-0.049195 -0.113053 -0.165165
-0.030273 -0.121044 -0.160795
-0.042838 -0.118271 -0.160713
-0.035838 -0.115956 -0.160897
-0.031433 -0.116620 -0.159137
-0.056112 -0.126250 -0.159894
-0.052896 -0.121435 -0.151654
-0.057164 -0.133506 -0.155776
-0.057839 -0.120948 -0.153237
-0.057899 -0.128611 -0.157124
-0.059312 -0.127759 -0.156906
-0.045436 -0.127469 -0.158049
-0.063367 -0.128692 -0.167340
-0.058834 -0.128026 -0.159988
-0.061760 -0.132972 -0.157998
-0.055852 -0.132730 -0.169008
-0.065822 -0.129216 -0.156495
-0.056651 -0.139210 -0.158709
-0.053927 -0.131459 -0.161671
-0.056964 -0.140054 -0.164614
-0.065450 -0.136848 -0.159431
-0.057386 -0.137534 -0.164861
-0.060141 -0.145479 -0.168913
-0.068414 -0.147280 -0.163535
-0.057516 -0.178233 -0.161196
-0.054158 -0.175163 -0.164309
-0.063923 -0.172021 -0.158573
-0.061810 -0.184331 -0.159733
-0.329296 0.139718 -0.005342
-0.061773 -0.182910 -0.162679
-0.002878 0.125035 -0.454605
0.001985 0.129428 -0.457370
-0.004840 0.123952 -0.462315
-0.009616 0.127629 -0.461865
-0.014700 0.121717 -0.449391
-0.037684 0.282509 -0.058617
-0.043995 0.280234 -0.050123
-0.046546 0.294136 -0.059306
-0.023237 0.124864 -0.455808
-0.037531 0.282429 -0.053578
-0.391649 0.284737 -0.048783
-0.400328 0.287559 -0.062195
-0.392873 0.292893 -0.054129
-0.029039 0.292772 -0.061679
-0.029655 0.295913 -0.057477
-0.036371 0.292129 -0.060551
-0.389156 0.291519 -0.062959
-0.042300 0.297275 -0.054701
-0.041060 0.295168 -0.052633
-0.378320 0.301786 -0.061116
-0.387963 0.296118 -0.060837
-0.381458 0.303987 -0.060966
-0.381898 0.293871 -0.054408
-0.396639 0.297565 -0.055019
0.072267 0.462528 -0.210787
-0.387785 0.296060 -0.062961
-0.392936 0.294990 -0.063115
0.080071 0.451557 -0.204419
0.078922 0.448679 -0.213520
-0.045205 0.297754 -0.065095
0.078574 0.450890 -0.208235
0.077534 0.452470 -0.206201
0.092766 0.444902 -0.203896
0.090265 0.439427 -0.209837
0.089161 0.437880 -0.204703
0.087695 0.439743 -0.206638
0.098146 0.446879 -0.203254
0.097406 0.436089 -0.205540
0.113743 0.443608 -0.204159
0.107795 0.433927 -0.209814
0.117832 0.434029 -0.207304
0.119809 0.438949 -0.204890
0.117417 0.440026 -0.210018
0.128612 0.434626 -0.210796
0.118166 0.428162 -0.205972
0.124835 0.434416 -0.209314
0.132708 0.434657 -0.200334
0.141690 0.424601 -0.215722
0.132547 0.425448 -0.210337
0.138103 0.423244 -0.213743
0.138545 0.417593 -0.205604
0.137325 0.419183 -0.213784
0.141493 0.417503 -0.203086
0.148920 0.423559 -0.204618
0.144220 0.406833 -0.201293
0.140046 0.408752 -0.212108
0.149468 0.400668 -0.205908
0.131208 0.392642 -0.206213
0.130718 0.383743 -0.206032
0.145434 0.396266 -0.198135
0.128935 0.384713 -0.213658
0.146214 0.386807 -0.207460
0.143410 0.387594 -0.212505
0.130313 0.368446 -0.211924
0.137860 0.376772 -0.211681
0.128691 0.379884 -0.209850
0.140035 0.375550 -0.205025
0.131593 0.371906 -0.200345
0.140947 0.373893 -0.199062
0.140712 0.371727 -0.212684
0.136925 0.365384 -0.206808
0.141258 0.367999 -0.211418
0.137489 0.358598 -0.198455
0.139522 0.361215 -0.217019
0.140554 0.361358 -0.210605
0.152186 0.355558 -0.203140
0.144912 0.350328 -0.198064
0.151520 0.352036 -0.211906
0.156533 0.346027 -0.201985
0.145392 0.352961 -0.202681
0.147872 0.344464 -0.203099
0.152226 0.349112 -0.208091
0.151931 0.343467 -0.203090
0.159176 0.341352 -0.216378
0.154605 0.334017 -0.210207
0.153048 0.337871 -0.201178
0.152998 0.335154 -0.213456
0.145894 0.334865 -0.211773
0.151062 0.318135 -0.213502
0.144464 0.316221 -0.206929
0.148761 0.328773 -0.203413
0.150089 0.314734 -0.206041
0.148245 0.306793 -0.205684
0.144065 0.315540 -0.210878
0.116553 0.294401 -0.202085
0.126160 0.305794 -0.206711
0.103748 0.288809 -0.212977
0.106801 0.297403 -0.210667
0.116693 0.298435 -0.215582
0.113917 0.292609 -0.209192
0.124045 0.294417 -0.206002
0.115322 0.295141 -0.206172
0.093327 0.297585 -0.207232
0.083138 0.288468 -0.206886
0.097943 0.298334 -0.210267
0.090941 0.284030 -0.213002
0.096310 0.294327 -0.213429
0.101571 0.290296 -0.213075
0.110092 0.296798 -0.209645
0.111530 0.300278 -0.206225
0.113948 0.300137 -0.203982
0.078827 0.286655 -0.215964
0.091507 0.287883 -0.197873
0.087150 0.280948 -0.199820
0.081364 0.275297 -0.205367
0.086767 0.281505 -0.204326
0.076510 0.283150 -0.201049
0.075820 0.268046 -0.213458
0.073953 0.257691 -0.211872
0.088434 0.249291 -0.210218
0.082464 0.252530 -0.212061
0.085278 0.235190 -0.205581
0.091996 0.234620 -0.208422
0.085127 0.241519 -0.209527
0.089171 0.224716 -0.200583
0.088848 0.230254 -0.203446
0.082886 0.224523 -0.216438
0.087923 0.222577 -0.206381
0.088899 0.220168 -0.207274
0.097160 0.207791 -0.201557
0.096814 0.195457 -0.210998
0.092755 0.199057 -0.213315
0.086608 0.187857 -0.207508
0.093453 0.188121 -0.208280
0.091429 0.180207 -0.207004
0.089136 0.178911 -0.202488
0.084773 0.175816 -0.209302
0.072267 0.167029 -0.197999
0.073574 0.178007 -0.207946
0.074965 0.179896 -0.205497
0.081098 0.170824 -0.211443
0.077732 0.172972 -0.214501
0.062781 0.154970 -0.206067
0.061642 0.159257 -0.206677
0.069875 0.159608 -0.203811
0.063511 0.159765 -0.211447
0.054718 0.160329 -0.213887
0.053557 0.153996 -0.209101
0.053270 0.151420 -0.202716
0.052614 0.150896 -0.201055
0.053435 0.153381 -0.204079
0.055608 0.141637 -0.200493
0.046716 0.155226 -0.208219
0.055632 0.140890 -0.203618
0.052138 0.142426 -0.206154
0.058461 0.142833 -0.215852
0.057369 0.136380 -0.215451
0.055459 0.124366 -0.206218
0.057292 0.133920 -0.204947
0.049666 0.119867 -0.202284
0.054864 0.126948 -0.211725
0.056576 0.127531 -0.215674
0.046186 0.102131 -0.200676
0.053435 0.099318 -0.204777
0.060265 0.097341 -0.200609
0.060130 0.096437 -0.208878
0.050518 0.087317 -0.207400
0.050717 0.078641 -0.199882
0.061287 0.060834 -0.208650
0.056486 0.071868 -0.208361
0.060103 0.060433 -0.212535
0.067000 0.055599 -0.208609
0.057623 0.029654 -0.202178
0.061015 0.022367 -0.211275
0.066510 0.031067 -0.213429
0.054729 0.022078 -0.208235
0.063128 0.023813 -0.209228
0.055815 0.010480 -0.200147
0.056000 0.008755 -0.200358
0.052319 -0.000083 -0.207037
0.047318 -0.000263 -0.209056
0.053136 0.005450 -0.201376
0.050726 0.007914 -0.206289
0.054227 0.004869 -0.210759
0.046694 -0.020861 -0.207323
0.037750 -0.011953 -0.214373
0.033234 -0.016046 -0.206028
0.036886 -0.027049 -0.209081
0.029201 -0.030881 -0.208556
0.030322 -0.035158 -0.200969
0.035762 -0.036325 -0.200678
0.035350 -0.033102 -0.213741
0.034847 -0.036586 -0.208286
0.031744 -0.039010 -0.213470
0.019224 -0.045389 -0.210764
0.029766 -0.044928 -0.215661
0.021377 -0.048052 -0.199334
0.027311 -0.047361 -0.211685
0.010785 -0.045747 -0.213087
0.014590 -0.048659 -0.209317
0.021033 -0.048563 -0.207217
0.028135 -0.041744 -0.201126
0.024218 -0.055147 -0.203147
0.014288 -0.060616 -0.206862
0.016343 -0.062476 -0.204422
0.008221 -0.062540 -0.212570
0.013482 -0.068299 -0.210509
0.012886 -0.060961 -0.207830
0.013801 -0.062418 -0.197875
0.011600 -0.071791 -0.203567
0.004674 -0.075689 -0.210816
0.000234 -0.068267 -0.200098
0.007586 -0.084168 -0.203035
0.001138 -0.077320 -0.202297
0.005550 -0.068688 -0.214955
-0.008283 -0.078903 -0.205206
0.005927 -0.079614 -0.203609
0.007989 -0.082509 -0.208449
-0.011330 -0.091308 -0.206261
-0.012608 -0.090511 -0.211268
-0.009678 -0.090554 -0.217080
-0.019308 -0.098101 -0.208339
-0.016475 -0.087864 -0.208596
-0.014128 -0.092387 -0.206484
-0.010813 -0.095966 -0.205259
-0.014259 -0.093265 -0.210146
-0.008128 -0.083455 -0.207903
-0.016431 -0.095965 -0.211712
-0.021975 -0.103702 -0.208332
-0.023715 -0.094119 -0.202705
0.038249 0.029202 -0.263913
0.047679 0.036479 -0.256507
0.037862 0.043089 -0.264511
0.047896 0.038744 -0.254464
0.051055 0.039732 -0.265419
0.042952 0.041503 -0.268350
0.046553 0.042424 -0.263586
0.049423 0.048436 -0.259071
-0.050890 -0.108739 -0.209612
-0.054245 -0.113035 -0.201835
0.045387 0.039143 -0.259533
0.043630 0.048572 -0.256012
0.053455 0.060904 -0.258447
-0.060015 -0.105400 -0.212338
-0.052850 -0.113571 -0.204257
-0.050575 -0.110513 -0.210561
-0.071817 -0.121409 -0.206072
-0.069776 -0.116531 -0.206182
-0.070223 -0.123791 -0.214489
-0.071117 -0.117999 -0.213242
-0.072185 -0.129415 -0.211904
-0.077704 -0.137709 -0.207258
-0.077271 -0.132616 -0.201909
-0.071934 -0.145205 -0.214513
-0.076550 -0.146457 -0.208121
-0.066570 -0.157140 -0.200610
-0.063745 -0.167605 -0.202343
-0.074119 -0.168629 -0.208788
-0.062434 -0.172604 -0.204583
-0.071828 -0.184449 -0.210030
-0.063918 -0.171670 -0.208237
-0.065624 -0.186817 -0.206233
-0.079673 -0.192566 -0.212840
-0.062937 -0.188252 -0.201950
-0.068443 -0.190772 -0.199060
-0.081947 -0.195024 -0.217041
-0.069966 -0.184980 -0.211757
-0.072901 -0.198690 -0.203547
-0.081931 -0.197003 -0.210199
-0.078323 -0.201109 -0.201462
-0.077656 -0.201851 -0.199689
-0.074899 -0.206631 -0.205826
-0.076317 -0.196554 -0.210100
-0.070349 -0.210230 -0.204195
-0.071350 -0.204266 -0.206574
-0.077486 -0.214337 -0.215007
-0.079036 -0.208837 -0.216140
-0.083060 -0.210719 -0.205059
-0.079324 -0.219712 -0.203494
-0.076359 -0.227836 -0.202516
-0.077805 -0.217877 -0.214258
-0.074751 -0.228473 -0.210316
-0.080458 -0.232895 -0.213504
-0.087080 -0.239742 -0.213276
-0.083865 -0.236005 -0.216818
-0.075792 -0.232034 -0.210841
-0.081546 -0.249827 -0.202444
-0.076246 -0.245208 -0.197941
-0.085062 -0.240100 -0.212492
-0.065271 -0.250198 -0.207950
-0.026517 -0.245293 -0.210766
-0.082545 -0.250546 -0.210085
-0.066591 -0.246469 -0.210837
-0.072574 -0.253274 -0.207052
-0.072794 -0.251782 -0.211084
-0.025270 -0.248453 -0.206755
-0.018773 -0.249527 -0.210214
-0.016351 -0.256299 -0.201141
-0.004944 -0.259190 -0.204395
0.003258 -0.256542 -0.205727
-0.006161 -0.249681 -0.205595
-0.003991 -0.256081 -0.210283
0.017302 -0.255334 -0.211794
0.018266 -0.256035 -0.207865
0.019386 -0.260952 -0.204520
-0.070877 -0.256674 -0.212910
-0.063566 -0.254187 -0.208460
-0.039537 -0.254994 -0.203663
-0.036104 -0.253055 -0.208125
-0.020330 -0.260023 -0.204049
-0.020035 -0.260517 -0.210280
-0.033611 -0.256861 -0.207431
-0.012864 -0.254735 -0.211335
-0.012670 -0.259322 -0.206293
-0.012858 -0.265310 -0.202363
-0.009873 -0.251473 -0.205385
0.011221 -0.260044 -0.211343
0.034516 -0.260134 -0.208640
-0.070908 -0.258467 -0.202787
-0.069068 -0.265229 -0.212267
-0.039011 -0.263337 -0.211355
-0.046127 -0.264226 -0.216132
-0.033400 -0.256877 -0.207763
-0.021913 -0.265013 -0.202750
-0.020109 -0.260060 -0.204286
-0.018803 -0.266701 -0.202146
-0.059554 -0.269807 -0.208207
-0.058052 -0.265150 -0.205641
-0.048570 -0.273077 -0.202011
-0.048441 -0.266845 -0.204755
-0.044647 -0.258722 -0.202482
-0.041545 -0.266056 -0.206100
-0.035446 -0.272327 -0.212013
-0.040025 -0.267283 -0.199514
-0.025812 -0.271528 -0.204599
-0.024236 -0.273338 -0.199972
-0.069103 -0.276180 -0.209127
-0.061727 -0.268425 -0.204747
-0.052991 -0.267851 -0.201383
-0.068459 -0.273628 -0.205591
-0.049432 -0.275029 -0.211446
-0.047335 -0.271682 -0.201107
-0.043811 -0.267970 -0.207756
-0.047610 -0.273312 -0.199865
0.127270 -0.278199 -0.203286
0.120145 -0.278390 -0.205097
0.134185 -0.276477 -0.201644
0.131008 -0.273934 -0.207929
0.136181 -0.276734 -0.212360
0.131199 -0.277404 -0.202369
0.139781 -0.295496 -0.214750
0.134347 -0.287616 -0.209526
0.137860 -0.289962 -0.205866
0.139530 -0.289535 -0.211523
0.136166 -0.286993 -0.203006
0.133207 -0.303604 -0.211129
0.140223 -0.304916 -0.203710
0.137300 -0.295140 -0.210964
0.139321 -0.298429 -0.205799
0.139887 -0.297980 -0.205746
0.130396 -0.307558 -0.212060
0.136778 -0.298284 -0.204398
0.135378 -0.307205 -0.204939
0.136108 -0.312736 -0.214414
0.123031 -0.325325 -0.204735
0.126837 -0.324577 -0.216274
0.134692 -0.318996 -0.204007
0.126543 -0.327027 -0.203927
0.124099 -0.328219 -0.206320
0.125367 -0.321888 -0.212332
0.125162 -0.319893 -0.199292
0.124168 -0.336266 -0.208018
0.114035 -0.346002 -0.207673
0.113333 -0.334208 -0.199114
0.121740 -0.339475 -0.205407
0.123059 -0.335438 -0.204489
0.111012 -0.346086 -0.209006
0.109251 -0.344752 -0.202746
0.119888 -0.349247 -0.208154
0.112043 -0.344991 -0.210639
0.104713 -0.352946 -0.204682
0.109335 -0.357114 -0.207677
0.108455 -0.358138 -0.206234
0.112962 -0.361151 -0.200784
0.100400 -0.355767 -0.207572
0.110213 -0.358029 -0.216615
0.109026 -0.355543 -0.206497
0.102811 -0.360736 -0.210443
0.099795 -0.363213 -0.207207
0.100798 -0.373908 -0.213493
0.095752 -0.374059 -0.204066
0.096795 -0.369287 -0.208967
0.092618 -0.368967 -0.215828
0.094227 -0.364395 -0.216135
0.086469 -0.374011 -0.203451
0.085524 -0.371266 -0.209730
0.082508 -0.381537 -0.206905
0.092377 -0.372031 -0.207408
0.091952 -0.370878 -0.216705
0.071481 -0.379848 -0.205955
0.086927 -0.371152 -0.204272
0.084536 -0.381312 -0.208963
0.081636 -0.381430 -0.207727
0.083113 -0.379247 -0.212440
0.073658 -0.394271 -0.208328
0.070533 -0.391734 -0.209553
0.077953 -0.392278 -0.199620
0.073469 -0.383787 -0.211690
0.060759 -0.400341 -0.211522
0.060819 -0.403778 -0.213620
0.061767 -0.400571 -0.209092
0.054198 -0.404664 -0.210880
0.047278 -0.411634 -0.214666
0.059178 -0.402264 -0.209804
0.048705 -0.412892 -0.209946
0.053362 -0.405488 -0.203868
0.056420 -0.413749 -0.205494
0.047666 -0.414062 -0.204631
0.034934 -0.414630 -0.202713
0.035484 -0.418581 -0.197903
0.031417 -0.422882 -0.205379
0.025598 -0.414291 -0.203867
0.030750 -0.424491 -0.215646
0.026676 -0.436539 -0.198835
0.016208 -0.432254 -0.208952
0.025822 -0.431709 -0.211016
0.028706 -0.430953 -0.206089
0.006095 -0.438050 -0.216343
0.012102 -0.435627 -0.211877
0.019537 -0.446423 -0.199853
0.024828 -0.435777 -0.208270
0.001458 -0.447027 -0.208896
0.008766 -0.442743 -0.201220
0.012019 -0.440475 -0.206335
-0.005775 -0.451453 -0.204772
0.012584 -0.443376 -0.205533
-0.021095 -0.458960 -0.206147
-0.023478 -0.451407 -0.211379
-0.020179 -0.455437 -0.206635
-0.019200 -0.452624 -0.206327
-0.003207 -0.446615 -0.200546
-0.003722 -0.458022 -0.202315
0.008423 -0.458917 -0.202826
-0.025330 -0.467288 -0.199894
-0.017823 -0.465976 -0.203991
-0.021788 -0.467325 -0.210830
-0.028411 -0.467712 -0.205856
-0.036810 -0.469808 -0.213270
-0.034505 -0.473204 -0.212904
-0.053276 -0.474802 -0.211786
-0.048505 -0.474041 -0.202304
-0.043768 -0.480339 -0.198793
-0.037487 -0.469267 -0.206374
-0.038016 -0.469694 -0.215506
-0.054095 -0.480317 -0.210577
-0.046715 -0.491072 -0.202072
-0.050779 -0.482249 -0.199756
-0.043344 -0.484284 -0.201551
-0.046563 -0.496121 -0.204105
-0.052399 -0.497043 -0.200765
-0.055629 -0.485893 -0.214454
-0.056411 -0.486187 -0.202837
0.029756 -0.091473 -0.091961
0.037539 -0.101337 -0.091715
0.036582 -0.094559 -0.103665
0.027281 -0.101337 -0.092899
-0.420970 -0.106379 -0.092821
0.028724 -0.092939 -0.096171
-0.416539 -0.084129 -0.100785
-0.417774 -0.086315 -0.101556
-0.417917 -0.094108 -0.098478
-0.031243 0.127592 -0.453283
-0.022336 0.126748 -0.453566
-0.055719 -0.186502 -0.160683
0.004608 0.122841 -0.461310
-0.093906 -0.352791 0.072600
-0.093292 -0.348887 0.074951
-0.102583 -0.351753 0.066136
-0.098925 -0.344912 0.073404
-0.321310 0.128737 -0.011653
-0.316892 0.141032 0.000134
-0.060268 -0.184584 -0.164140
-0.000847 0.134375 -0.455182
-0.133360 -0.350319 0.078321
-0.137549 -0.341927 0.067012
-0.122030 -0.347903 0.078033
-0.004170 0.138217 -0.460958
0.012831 0.141464 -0.455702
0.009031 0.141691 -0.457903
0.018068 0.151282 -0.461886
0.011684 0.148866 -0.454731
0.024350 0.154128 -0.465927
0.010837 0.150223 -0.454288
0.009333 0.158515 -0.459941
0.012108 0.167066 -0.461600
0.018080 0.155859 -0.455413
0.011725 0.166468 -0.455128
0.015012 0.159739 -0.455657
0.024279 0.171737 -0.460054
0.018028 0.167583 -0.465375
0.021960 0.182796 -0.459498
0.023590 0.186574 -0.456334
0.079693 -0.420023 -0.054473
0.072794 -0.421011 -0.054104
0.078745 -0.429973 -0.045940
0.072852 -0.423678 -0.055071
0.070049 -0.431871 -0.059614
0.068223 -0.425560 -0.049138
0.064810 -0.435512 -0.048259
0.070151 -0.434989 -0.046567
0.068330 -0.442363 -0.052455
0.074117 -0.433165 -0.043543
0.070000 -0.442490 -0.050188
0.065433 -0.445134 -0.047256
0.069358 -0.452361 -0.061916
0.067175 -0.461312 -0.045673
0.053698 -0.461788 -0.048229
0.055976 -0.451083 -0.049573
-0.034143 0.302530 -0.061899
-0.043994 0.312849 -0.058838
-0.045237 0.299912 -0.063844
-0.047778 0.308676 -0.054818
-0.375783 0.311834 -0.064331
-0.370960 0.301997 -0.060130
-0.375043 0.309999 -0.055007
0.115557 0.436171 -0.223831
0.116770 0.432478 -0.229324
0.119497 0.434514 -0.225132
0.118143 0.436082 -0.225284
0.127867 0.440975 -0.235088
0.133328 0.430758 -0.229390
0.141421 0.437444 -0.226800
0.136676 0.423993 -0.235046
0.140499 0.431737 -0.225272
0.145680 0.426495 -0.228392
0.138495 0.431971 -0.221056
0.140972 0.428322 -0.224459
0.153736 0.423326 -0.233116
0.154288 0.416955 -0.231451
0.149416 0.419479 -0.226924
0.155799 0.416736 -0.233083
0.146675 0.423929 -0.227882
0.148336 0.411981 -0.234962
0.146801 0.391597 -0.229499
0.157326 0.398634 -0.231768
0.151975 0.407695 -0.223694
0.144823 0.391490 -0.235384
0.150900 0.388547 -0.226757
0.148487 0.384210 -0.229798
0.153556 0.384670 -0.227779
0.145782 0.378027 -0.229945
0.145850 0.377522 -0.231152
0.150771 0.376994 -0.228486
0.149651 0.373937 -0.230142
0.140984 0.377556 -0.234815
0.145567 0.359553 -0.237377
0.154222 0.357086 -0.224436
0.156181 0.360059 -0.234735
0.155527 0.352442 -0.231845
0.152613 0.351968 -0.220721
0.149510 0.358278 -0.231149
0.153392 0.354172 -0.228849
0.161951 0.336167 -0.231044
0.155775 0.331930 -0.229254
0.165918 0.338812 -0.227269
0.156989 0.331426 -0.232516
0.166870 0.315338 -0.223438
0.161724 0.328346 -0.233092
0.156594 0.319356 -0.229607
0.156858 0.326057 -0.232010
0.163109 0.330680 -0.228466
0.167392 0.319136 -0.231474
0.164375 0.322366 -0.233201
0.157264 0.316492 -0.224861
0.148079 0.305880 -0.223587
0.152657 0.303946 -0.229563
0.157048 0.306412 -0.219555
0.134225 0.303259 -0.234175
0.136968 0.297273 -0.231774
0.146181 0.296499 -0.227003
0.145220 0.303309 -0.226002
0.151248 0.309389 -0.222460
0.156356 0.305887 -0.224434
0.119181 0.290048 -0.229307
0.124894 0.301889 -0.231583
0.131930 0.300953 -0.229172
0.133509 0.299018 -0.231349
0.138001 0.298206 -0.226271
0.112248 0.292981 -0.230986
0.108754 0.292063 -0.230035
0.106577 0.290918 -0.238498
0.124348 0.292352 -0.223339
0.130754 0.298668 -0.236475
0.096290 0.283809 -0.230809
0.105228 0.280461 -0.227504
0.100605 0.294768 -0.232847
0.095300 0.284175 -0.225822
0.087378 0.276853 -0.232885
0.079275 0.275333 -0.227979
0.084941 0.262118 -0.229809
0.075904 0.257624 -0.223031
0.083547 0.247762 -0.231773
0.087713 0.239864 -0.237382
0.084073 0.243014 -0.225715
0.076291 0.242973 -0.231304
0.093584 0.240873 -0.222973
0.080902 0.233833 -0.227879
0.086505 0.225855 -0.234940
0.089721 0.230603 -0.231699
0.088235 0.220980 -0.230637
0.092818 0.217701 -0.219992
0.083071 0.217771 -0.233479
0.097584 0.220323 -0.221067
0.097623 0.205369 -0.231916
0.087995 0.211952 -0.229414
0.093488 0.200727 -0.225513
0.092908 0.192474 -0.232134
0.099327 0.186070 -0.228265
0.090778 0.192092 -0.238168
0.091321 0.184335 -0.224714
0.078434 0.163938 -0.219904
0.079099 0.162517 -0.227444
0.080291 0.160563 -0.231915
0.074922 0.171249 -0.228665
0.077438 0.160434 -0.231829
0.072387 0.166671 -0.233945
0.068255 0.153326 -0.233027
0.067325 0.149346 -0.225246
0.063551 0.144754 -0.220341
0.063002 0.139132 -0.219660
0.055943 0.123336 -0.222200
0.066072 0.128911 -0.225017
0.060633 0.123482 -0.224872
0.054644 0.113200 -0.232801
0.058639 0.112113 -0.226384
0.062966 0.106920 -0.222532
0.062152 0.109935 -0.228090
0.058263 0.111780 -0.231571
0.056616 0.112528 -0.232606
0.061494 0.102613 -0.226522
0.066236 0.096489 -0.237301
0.058458 0.088320 -0.234557
0.057111 0.102530 -0.228899
0.056650 0.089170 -0.229856
0.061549 0.087249 -0.220903
0.068005 0.075467 -0.228313
0.056796 0.065377 -0.227553
0.062291 0.066848 -0.229937
0.062738 0.061049 -0.229595
0.066555 0.060726 -0.227629
0.060238 0.052255 -0.225859
0.056711 0.060142 -0.234003
0.064391 0.056015 -0.223740
0.055709 0.046121 -0.229504
0.057556 0.044434 -0.234465
0.061058 0.043303 -0.228064
0.050754 0.025847 -0.221369
0.047925 0.025537 -0.231177
0.048970 0.038006 -0.231712
0.062085 0.034299 -0.234142
0.053466 0.019547 -0.221363
0.042964 0.011978 -0.221440
0.048299 0.020610 -0.233691
0.039815 0.006277 -0.226948
0.049824 0.001281 -0.223909
0.049109 0.009400 -0.234626
0.042833 0.011413 -0.226379
0.040006 -0.004662 -0.227577
0.047554 0.002166 -0.225516
0.039892 -0.001503 -0.229891
0.028054 -0.002379 -0.227874
0.034853 -0.008739 -0.232170
0.030680 -0.012145 -0.229234
0.039872 -0.008899 -0.228218
0.032670 -0.017418 -0.220267
0.020701 -0.021023 -0.229725
0.027742 -0.019891 -0.228461
0.021476 -0.028126 -0.236601
0.014552 -0.035568 -0.227803
0.017556 -0.034540 -0.232848
0.033006 -0.022437 -0.226767
0.013097 -0.031875 -0.229954
0.015366 -0.044121 -0.227732
0.003323 -0.054586 -0.231694
0.009137 -0.049892 -0.231365
0.001586 -0.057644 -0.219775
-0.004417 -0.061417 -0.235801
-0.001744 -0.051815 -0.225361
0.000833 -0.067005 -0.222100
-0.004242 -0.063201 -0.225279
0.000197 -0.067456 -0.224697
0.058294 0.058014 -0.268005
0.061821 0.069095 -0.260200
0.065143 0.065868 -0.255258
-0.009032 -0.066558 -0.226900
0.050895 0.077915 -0.262902
-0.009319 -0.071623 -0.231693
0.048586 0.080967 -0.265571
0.061781 0.088427 -0.261148
0.055834 0.080897 -0.263919
0.058935 0.086859 -0.254459
0.054708 0.101850 -0.256385
0.063909 0.121015 -0.256976
0.066322 0.129856 -0.262925
0.064181 0.084965 -0.242491
0.059285 0.089896 -0.242897
0.067010 0.096250 -0.228814
0.059909 0.093448 -0.234626
0.059367 0.098480 -0.229189
0.055997 0.093141 -0.227598
-0.381419 -0.392732 0.161690
0.054693 0.103288 -0.237538
0.059531 0.106961 -0.235132
0.038614 -0.087254 -0.104476
0.038870 -0.091815 -0.095911
0.036829 -0.088719 -0.097869
0.033305 -0.088364 -0.095491
0.032191 -0.079634 -0.096501
-0.424406 -0.091741 -0.094996
-0.084171 -0.136781 -0.226672
-0.089557 -0.153092 -0.234071
-0.087218 -0.145111 -0.232943
-0.410834 -0.092511 -0.093152
-0.087041 -0.152040 -0.229936
-0.089216 -0.164989 -0.234319
-0.087800 -0.159882 -0.230455
-0.083926 -0.153646 -0.236049
-0.080473 -0.160774 -0.231865
-0.085320 -0.175776 -0.232953
-0.080547 -0.164382 -0.220777
-0.085061 -0.162257 -0.225306
-0.079714 -0.169548 -0.220598
-0.092832 -0.167994 -0.231323
-0.087982 -0.168504 -0.237248
-0.088782 -0.171070 -0.223493
-0.090463 -0.175059 -0.229417
-0.091293 -0.192514 -0.236111
-0.092234 -0.186184 -0.231185
-0.081993 -0.188107 -0.225990
-0.089023 -0.193651 -0.226019
-0.086187 -0.191712 -0.225726
-0.093667 -0.196058 -0.232267
-0.083244 -0.192766 -0.226490
-0.095139 -0.197633 -0.232409
-0.092717 -0.197115 -0.225684
-0.094773 -0.199246 -0.221972
-0.096283 -0.203513 -0.232871
-0.093962 -0.202615 -0.226237
-0.094948 -0.214953 -0.224808
-0.098872 -0.216852 -0.226576
-0.099550 -0.219119 -0.230996
-0.099072 -0.221213 -0.227961
-0.108110 -0.221043 -0.232628
-0.099559 -0.219619 -0.228546
-0.101589 -0.227392 -0.232993
-0.106317 -0.227136 -0.225888
-0.108036 -0.231868 -0.230495
-0.099602 -0.226921 -0.231940
-0.093534 -0.230076 -0.230977
-0.093248 -0.235772 -0.230012
-0.100955 -0.233322 -0.234302
-0.106060 -0.232089 -0.226005
-0.094298 -0.240112 -0.227362
-0.092194 -0.239658 -0.220806
-0.057596 -0.223366 -0.177976
-0.090175 -0.249287 -0.227519
-0.097148 -0.246115 -0.236177
-0.077854 -0.249270 -0.224673
-0.079017 -0.248230 -0.230993
-0.082006 -0.251137 -0.232380
-0.083573 -0.248081 -0.233884
-0.057823 -0.249553 -0.233281
-0.045351 -0.245855 -0.222553
-0.191126 -0.327759 0.125136
-0.044667 -0.242206 -0.227717
-0.047538 -0.253818 -0.220736
-0.181906 -0.335254 0.115569
-0.473688 -0.338631 0.110692
-0.000796 0.298620 -0.088194
-0.002471 0.307197 -0.099214
-0.054045 -0.214933 -0.168279
-0.000609 0.316587 -0.098517
-0.378406 -0.398368 0.157676
-0.469205 -0.334478 0.114027
-0.467449 -0.335362 0.114417
0.002570 0.308331 -0.088889
-0.049876 -0.212619 -0.166208
0.002201 0.313401 -0.097902
0.036017 -0.082131 -0.104940
-0.088462 -0.253032 -0.228543
-0.081048 -0.254708 -0.228554
-0.076811 -0.243744 -0.238417
-0.062665 -0.248381 -0.234877
-0.056805 -0.243915 -0.236412
-0.050520 -0.258365 -0.227077
-0.323672 0.105076 -0.001501
-0.461415 -0.335472 0.116860
0.012014 0.323194 -0.090456
0.001386 0.323678 -0.102261
-0.064911 -0.252619 -0.229954
-0.068635 -0.257153 -0.222431
-0.069681 -0.261595 -0.230994
-0.006142 0.315333 -0.091884
-0.390518 0.315208 -0.092363
-0.393312 0.310118 -0.100684
0.006071 0.327880 -0.096611
0.058976 0.124702 -0.261285
0.067918 0.122772 -0.262139
0.061916 0.130259 -0.256944
0.070152 0.132040 -0.253460
0.068291 0.129450 -0.269365
0.067351 0.137556 -0.261510
0.072969 0.145656 -0.261471
0.076670 0.141898 -0.261121
0.078708 0.146102 -0.258461
0.076752 0.146554 -0.259340
0.083228 0.150808 -0.266122
0.071324 0.148811 -0.263305
0.082789 0.151562 -0.264659
0.076397 0.145189 -0.262322
0.118986 -0.307914 -0.227241
0.079717 0.153978 -0.260030
0.128625 -0.297336 -0.222123
0.126627 -0.315260 -0.219369
0.086632 0.155845 -0.261027
0.126823 -0.298783 -0.233061
0.113222 -0.313743 -0.224049
0.124014 -0.319957 -0.226375
0.114281 -0.318721 -0.231114
0.118143 -0.330665 -0.231497
0.119346 -0.315661 -0.226977
0.109692 -0.325387 -0.235373
0.114346 -0.313689 -0.228370
0.119859 -0.320284 -0.234609
0.112104 -0.333369 -0.231973
0.113191 -0.332578 -0.232162
0.106281 -0.324297 -0.230255
0.112999 -0.338929 -0.235208
0.102022 -0.335198 -0.234066
0.109160 -0.339049 -0.232675
0.097492 -0.340084 -0.229240
0.095212 -0.356708 -0.235353
0.085092 -0.355023 -0.232270
0.089386 -0.355052 -0.224942
0.093669 -0.364307 -0.227676
0.079698 -0.365162 -0.234585
0.088803 -0.363220 -0.226045
0.081078 -0.371486 -0.231843
0.085427 -0.360335 -0.224623
0.088000 -0.363441 -0.229331
0.083214 -0.364936 -0.224392
0.076598 -0.364977 -0.224245
0.058448 -0.384014 -0.235409
0.065289 -0.380814 -0.224111
0.066549 -0.373097 -0.227490
0.064168 -0.382363 -0.238051
0.052057 -0.389158 -0.226838
0.061132 -0.389980 -0.231560
0.059386 -0.382480 -0.227178
0.063097 -0.385016 -0.227095
0.061676 -0.389952 -0.224821
0.059872 -0.392764 -0.223607
0.049514 -0.390521 -0.222120
0.050249 -0.387183 -0.228527
0.052278 -0.395080 -0.229452
0.038445 -0.402220 -0.225035
0.038703 -0.398441 -0.232586
0.037902 -0.405425 -0.219298
0.029694 -0.408103 -0.222052
0.043797 -0.402912 -0.233538
0.041093 -0.402569 -0.232181
0.038745 -0.413470 -0.225244
0.025166 -0.417821 -0.227893
0.020011 -0.421216 -0.232296
0.026681 -0.411884 -0.235213
0.030327 -0.407038 -0.230879
0.028310 -0.411851 -0.232074
0.012555 -0.427362 -0.224958
0.022201 -0.421484 -0.232414
0.008144 -0.415639 -0.235263
0.017490 -0.416801 -0.228850
0.023855 -0.417081 -0.225494
0.002122 -0.417903 -0.228667
0.011025 -0.416438 -0.229043
0.008574 -0.423477 -0.220742
0.006201 -0.432517 -0.229543
0.008490 -0.433030 -0.228297
0.008044 -0.423020 -0.229453
-0.003617 -0.432082 -0.225702
0.008391 -0.429650 -0.231445
0.012412 -0.428531 -0.229156
-0.013626 -0.445333 -0.228907
-0.008178 -0.439868 -0.236846
-0.002875 -0.446992 -0.237490
-0.019682 -0.451662 -0.225244
-0.032060 -0.447965 -0.224653
-0.014769 -0.441468 -0.219567
-0.024677 -0.443644 -0.233686
-0.029803 -0.451357 -0.227855
-0.034110 -0.449294 -0.229777
-0.035241 -0.461525 -0.228095
-0.023641 -0.460834 -0.222312
-0.030416 -0.454028 -0.227504
-0.032401 -0.464538 -0.228315
-0.044657 -0.461035 -0.225283
-0.040671 -0.473385 -0.219482
-0.049352 -0.463305 -0.230347
-0.041258 -0.462997 -0.228196
-0.057950 -0.478503 -0.235087
-0.041751 -0.469691 -0.223712
-0.047680 -0.473836 -0.224103
-0.056782 -0.483177 -0.220122
-0.057035 -0.496187 -0.236915
-0.051141 -0.483906 -0.229780
-0.058109 -0.491141 -0.220441
-0.056733 -0.489122 -0.225588
-0.068347 -0.499134 -0.223816
-0.425848 -0.089504 -0.092342
-0.072973 -0.502547 -0.235982
-0.427061 -0.090039 -0.103163
-0.421719 -0.085332 -0.103272
0.040170 -0.077412 -0.088251
-0.426473 -0.072076 -0.090656
-0.420585 -0.072323 -0.086262
-0.422792 -0.076006 -0.089276
-0.427167 -0.072254 -0.097898
0.057260 -0.451047 -0.055287
0.059756 -0.468963 -0.057681
0.049605 -0.468267 -0.049833
0.059157 -0.476250 -0.057987
-0.427028 -0.072769 -0.089210
0.037783 -0.059167 -0.100308
-0.430434 -0.072163 -0.096806
-0.435882 -0.070565 -0.104789
-0.049539 0.318515 -0.054291
-0.264789 -0.332169 0.155357
-0.252917 -0.330351 0.150761
-0.425092 -0.339193 0.154638
-0.422758 -0.337709 0.155318
-0.253001 -0.337129 0.151991
-0.245143 -0.343841 0.157422
-0.238042 -0.335495 0.156541
-0.234761 -0.334792 0.151877
-0.249618 -0.337000 0.155536
-0.231414 -0.339826 0.156000
-0.417824 -0.344542 0.157974
-0.414433 -0.347828 0.155179
-0.413455 -0.336578 0.155655
-0.244029 -0.343620 0.164010
-0.232756 -0.347781 0.158206
-0.230793 -0.351164 0.162624
-0.232525 -0.344073 0.146637
-0.051983 0.304901 -0.061777
-0.376785 0.306089 -0.064268
-0.367166 0.316740 -0.065154
-0.043135 0.326590 -0.063430
0.118998 0.413090 -0.296017
0.122617 0.413401 -0.291734
0.121331 0.405501 -0.291369
0.121180 0.398469 -0.289746
0.127391 0.405367 -0.291802
0.136339 0.412142 -0.295462
0.128577 0.411064 -0.290775
0.133094 0.398815 -0.294925
0.135080 0.397417 -0.302440
0.123525 0.395174 -0.295872
0.134553 0.392884 -0.289641
0.123619 0.394265 -0.300192
0.135818 0.394829 -0.300986
0.137086 0.385035 -0.294584
0.133046 0.383422 -0.295340
0.143747 0.375090 -0.291661
0.132644 0.389366 -0.293743
0.137134 0.390776 -0.283588
0.143277 0.374079 -0.296460
0.133964 0.379854 -0.285639
0.139087 0.366525 -0.301724
0.138465 0.364463 -0.296644
0.141139 0.363191 -0.296316
0.144071 0.364610 -0.283710
0.150922 0.355800 -0.288882
0.153010 0.347083 -0.290305
0.150445 0.342805 -0.290058
0.146366 0.347250 -0.291471
0.147009 0.351711 -0.299597
0.151242 0.337608 -0.290370
0.155094 0.346804 -0.287618
0.146104 0.342542 -0.295486
0.151913 0.330756 -0.286900
0.153844 0.334927 -0.297492
0.157936 0.339893 -0.299855
0.152077 0.330944 -0.291562
0.158732 0.324802 -0.294312
0.154786 0.338630 -0.288327
0.161857 0.320771 -0.290648
0.157914 0.324712 -0.298863
0.158760 0.332644 -0.298547
0.151769 0.322045 -0.297476
0.159229 0.315773 -0.301228
0.154740 0.314554 -0.291355
0.156759 0.315914 -0.287833
0.151878 0.299506 -0.292165
0.150472 0.305782 -0.283739
0.145548 0.298405 -0.287294
0.142170 0.298496 -0.301417
0.156861 0.301501 -0.295387
0.145603 0.295710 -0.289331
0.143715 0.301102 -0.294700
0.144236 0.288119 -0.296483
0.147222 0.285863 -0.290787
0.152179 0.290633 -0.286254
0.134642 0.281442 -0.297313
0.144171 0.286702 -0.289049
0.143435 0.280919 -0.286871
0.141520 0.271991 -0.292740
0.138607 0.271235 -0.292755
0.134831 0.261633 -0.301924
0.122718 0.252081 -0.291583
0.126859 0.257594 -0.296987
0.134226 0.261087 -0.302450
0.099250 0.254611 -0.286999
0.101684 0.251101 -0.298688
0.114416 0.259142 -0.302510
0.116487 0.249059 -0.298680
0.119033 0.262387 -0.301956
0.075470 0.245935 -0.295036
0.073216 0.249064 -0.286321
0.078932 0.245489 -0.293081
0.080210 0.246253 -0.293925
0.095319 0.253661 -0.295358
0.100073 0.257812 -0.286991
0.103287 0.257177 -0.292828
0.082221 0.247213 -0.290544
0.074535 0.251086 -0.293251
0.073446 0.232046 -0.294038
0.079288 0.242373 -0.298658
0.068180 0.220769 -0.295064
0.078054 0.219116 -0.284915
0.076899 0.236583 -0.292775
0.077447 0.229085 -0.296951
0.064115 0.216963 -0.293957
0.066373 0.226323 -0.296957
0.064412 0.214676 -0.295864
0.069907 0.207301 -0.293449
0.071108 0.214320 -0.287128
0.065611 0.205054 -0.294864
0.068858 0.210721 -0.291485
0.067497 0.198357 -0.285284
0.069325 0.215463 -0.292960
0.077740 0.204296 -0.289888
0.068842 0.189536 -0.296524
0.062764 0.198678 -0.294883
0.077196 0.199770 -0.290327
0.079175 0.196716 -0.287960
0.076236 0.198425 -0.296063
0.064693 0.187717 -0.288466
0.059563 0.199153 -0.293431
0.062041 0.193887 -0.290417
0.077155 0.185954 -0.286261
0.057921 0.188993 -0.296273
0.068843 0.179698 -0.300011
0.069228 0.180020 -0.296124
0.074114 0.180643 -0.287159
0.060562 0.175031 -0.288759
0.078096 0.166466 -0.294357
0.071150 0.173828 -0.292589
0.064111 0.160559 -0.297465
0.064527 0.177339 -0.287421
0.064823 0.169332 -0.300455
0.065916 0.177549 -0.288164
0.069872 0.170141 -0.293303
0.063038 0.158644 -0.289848
0.070499 0.152556 -0.286984
0.076546 0.158782 -0.288043
0.068473 0.157535 -0.297967
0.075868 0.161330 -0.290639
0.066328 0.144358 -0.296810
0.072052 0.155294 -0.298030
0.058991 0.150303 -0.289644
0.059996 0.150060 -0.289967
0.048180 0.140462 -0.292985
0.054619 0.147241 -0.300368
0.049809 0.134206 -0.287657
0.060500 0.136366 -0.295179
0.062695 0.140544 -0.285220
0.056251 0.135332 -0.296366
0.050311 0.139429 -0.296170
0.057942 0.141218 -0.286588
0.054383 0.125202 -0.285913
0.044468 0.127574 -0.298396
0.049650 0.119345 -0.285773
0.043563 0.114336 -0.296714
0.046848 0.112837 -0.298236
0.037088 0.119017 -0.284037
0.045428 0.124383 -0.290492
0.045492 0.113905 -0.294393
0.043184 0.106789 -0.296493
0.037117 0.102531 -0.296452
0.042148 0.104526 -0.295265
0.040323 0.108003 -0.298353
0.036792 0.111570 -0.293583
0.040287 0.092391 -0.289618
0.042152 0.091812 -0.295300
0.040961 0.090006 -0.284661
0.041876 0.089576 -0.299211
0.047705 0.081172 -0.289471
0.032311 0.087103 -0.302119
0.043587 0.084262 -0.296104
0.047578 0.078500 -0.292560
0.043966 0.074161 -0.294246
0.048238 0.072495 -0.286428
0.042663 0.067970 -0.295713
0.047142 0.079700 -0.292815
0.049145 0.075028 -0.292064
0.039621 0.069240 -0.291342
0.048107 0.071957 -0.295890
0.039645 0.063852 -0.297057
0.042142 0.060731 -0.294835
0.042222 0.071169 -0.293847
0.032472 0.053689 -0.291948
0.040459 0.059021 -0.293236
0.043009 0.054011 -0.295814
0.023554 0.043412 -0.296284
0.021843 0.051215 -0.291021
0.039204 0.049220 -0.286803
0.031545 0.053306 -0.290329
0.028542 0.055991 -0.293121
0.025359 0.050148 -0.288762
0.027756 0.036961 -0.291263
0.022507 0.035572 -0.289241
0.013892 0.025179 -0.295519
0.016474 0.028828 -0.289071
0.017948 0.018003 -0.298772
0.012869 0.032194 -0.299911
0.011515 0.022291 -0.292532
0.021050 0.016831 -0.291539
0.018870 0.021983 -0.290881
0.005400 0.018535 -0.289263
0.012490 0.014573 -0.294295
0.000135 0.010372 -0.294338
0.007703 0.020024 -0.292636
0.020932 0.012534 -0.285778
0.008858 0.009747 -0.287831
0.012411 0.011625 -0.293892
-0.018724 0.011869 -0.291636
-0.016513 0.010842 -0.289421
-0.007579 -0.004295 -0.296608
-0.011778 -0.005351 -0.285248
-0.007264 0.005397 -0.290617
-0.014343 0.007613 -0.284614
-0.005583 0.006567 -0.285956
-0.014699 0.003754 -0.286839
-0.000166 0.001394 -0.296755
0.005087 -0.002245 -0.295352
0.087806 0.159696 -0.262707
0.001667 -0.001014 -0.294497
-0.002893 -0.002219 -0.296628
0.006911 0.005442 -0.291165
0.006762 -0.002449 -0.286092
0.081840 0.156421 -0.262173
0.088719 0.183188 -0.267020
0.098949 0.186951 -0.257474
0.088466 0.189374 -0.256029
0.083256 0.190380 -0.256193
0.084614 0.191938 -0.268869
0.087495 0.204287 -0.264327
0.086816 0.207033 -0.258933
0.079184 0.209778 -0.265180
0.075363 0.218344 -0.259572
0.081084 0.220352 -0.265609
0.079924 0.218003 -0.260648
0.082548 0.230837 -0.265893
0.078712 0.231690 -0.263148
0.081701 0.235614 -0.263611
0.074604 0.229930 -0.262267
0.086891 0.245873 -0.262369
0.080870 0.253047 -0.266561
0.080158 0.245207 -0.261141
0.089181 0.257812 -0.269565
0.088362 0.250015 -0.256230
0.089453 0.254538 -0.264953
0.056365 0.112224 -0.230914
0.054905 0.120129 -0.229967
0.062821 0.112149 -0.228548
0.064446 0.119170 -0.230257
0.063312 0.128365 -0.232077
0.067154 0.118891 -0.237133
0.062255 0.114289 -0.235099
0.069015 0.131562 -0.230574
0.069607 0.132685 -0.237067
0.061208 0.131108 -0.230215
