-0.287989 0.053281 0.285170
0.293889 -0.221620 -0.068001
-0.161062 0.545563 0.539587
-0.104145 0.270028 0.547204
-0.538722 -0.109051 0.454903
0.153588 -0.066196 -0.104018
-0.284956 0.618223 0.381640
-0.153780 0.559838 -0.190386
0.322838 0.464869 0.221944
0.134543 0.846905 -0.606466
0.051692 -0.241401 -0.067810
-0.030496 -0.967783 -0.483272
0.229475 -0.045549 0.011411
0.268079 -0.336683 -0.055701
-0.206861 -0.116586 -0.101292
0.088670 -0.727685 0.147603
-0.326873 -0.213560 0.214915
0.085591 -0.161031 0.633896
0.069334 -0.246837 -0.662358
0.285481 0.203730 0.149186
0.130127 0.361815 0.546382
-0.158774 -0.527329 0.630448
-0.133765 0.500580 0.555644
-0.254963 -0.352038 0.174341
-0.128233 -0.149709 0.605684
0.123492 -0.726977 0.164429
-0.087067 0.103086 -0.197466
0.091692 -0.299626 -0.179699
-0.181655 0.656556 -0.246643
0.023030 -0.386977 0.113918
0.148726 -0.793035 0.230882
0.294818 0.701636 0.078010
-0.205032 0.610039 0.501874
0.150456 0.286053 -0.205697
-0.047364 -0.739599 0.652227
0.011242 -0.092301 -0.123895
-0.285360 0.168934 0.149464
0.082060 -0.240719 -0.221918
-0.073019 0.739841 -0.341571
-0.219384 0.399783 0.499086
-0.126884 -0.178135 -0.215930
-0.002273 0.985236 -0.346861
-0.362279 -0.275668 0.528040
-0.091205 -0.891873 0.199663
0.108930 0.236109 -0.221682
-0.252725 0.028593 0.445772
0.062308 0.630685 -0.218812
0.202597 -0.112748 0.542029
-0.289022 0.050787 0.258961
0.169479 -0.179128 -0.447060
0.313233 0.381356 0.343568
-0.097070 -0.590047 0.211653
-0.284680 -0.006178 0.204392
-0.164870 -0.377268 -0.194874
-0.031421 -0.916878 -0.504931
-0.231320 -0.346306 -0.163423
-0.179732 -0.684720 0.510671
0.293495 -0.216434 -0.062756
-0.097455 -0.209929 -0.604395
0.437396 -0.163176 0.577253
0.164468 -0.610942 0.305876
0.135617 0.868210 0.254553
-0.341762 -0.261938 0.609668
-0.257597 -0.459816 0.365561
-0.035823 -0.926584 -0.215261
0.290958 0.022299 0.251441
-0.393935 -0.205260 0.600112
-0.200009 -0.554489 0.512400
-0.135154 -0.807040 0.419302
-0.273698 0.699780 -0.000617
0.193081 0.826112 -0.359044
0.285557 -0.362543 0.581645
0.258041 -0.274316 -0.187104
0.143340 -0.793621 0.265108
0.119731 0.811592 0.422775
0.036473 -0.945557 -0.530603
-0.169593 -0.401889 0.223477
-0.283903 -0.040378 0.163604
-0.152268 0.838629 -0.473939
-0.130229 0.840482 -0.343700
-0.288253 0.034129 0.253277
-0.212983 0.667709 -0.205368
0.308680 -0.109334 0.311115
0.114132 -0.862152 0.250757
-0.293206 0.248954 0.141424
-0.266435 0.146470 0.076641
0.215401 -0.062903 0.521476
0.058752 -0.897750 0.359259
-0.198425 -0.120016 0.544688
0.294247 0.616947 0.122695
-0.048223 -0.412834 0.147103
-0.215120 -0.495125 0.578661
-0.195680 0.481784 0.521610
0.159079 -0.384401 -0.066971
0.060686 0.310324 -0.238887
-0.102716 -0.265351 -0.674856
-0.169081 -0.176342 -0.301125
-0.245825 -0.496681 0.236080
-0.327060 -0.169747 0.262408
-0.321908 0.427012 0.200307
-0.535498 -0.154541 0.397536
0.164387 -0.167523 -0.320157
0.007264 0.981577 -0.145912
0.079166 0.536016 -0.213803
0.306220 -0.147184 0.075097
0.001983 -0.900755 -0.442480
0.007418 -0.674635 0.158466
-0.010663 -0.741497 0.134266
0.271492 -0.471484 0.275557
-0.014618 0.366328 -0.238207
-0.052666 -0.922072 -0.057217
0.223777 -0.292729 -0.308432
-0.240856 0.335478 -0.059533
0.238009 -0.385475 0.628372
0.030677 -0.880576 -0.045686
0.109657 0.725745 -0.659930
-0.394044 -0.333990 0.359571
0.173322 0.709415 -0.534973
-0.032500 0.000360 -0.171118
-0.012687 0.047053 0.612971
-0.001438 0.411593 -0.232833
-0.450957 -0.165477 0.549121
0.313588 -0.205163 0.052637
-0.280671 0.706625 0.092501
-0.060900 0.908768 0.098945
-0.239098 0.329926 0.469844
0.278999 0.158443 0.144614
-0.312268 0.388380 0.328442
-0.135038 0.835317 -0.388880
-0.237326 -0.470521 0.511790
-0.141034 -0.768862 0.143175
0.249346 -0.325106 0.287754
0.323844 -0.159134 0.200414
-0.027852 -0.269308 0.664601
-0.081114 -0.913224 0.013238
0.034967 -0.917061 -0.139278
-0.363517 -0.358520 0.356737
0.078802 -0.273941 -0.101230
0.150769 -0.539949 0.264846
-0.072412 -0.273550 -0.078522
0.068087 -0.359177 0.043657
0.053770 0.826419 -0.143370
0.121593 0.368256 0.550891
-0.292202 -0.004253 0.277684
0.096790 0.626142 -0.238043
0.267552 -0.014237 0.115294
0.242820 -0.448788 0.418149
-0.442822 -0.230843 0.411833
0.055950 -0.575909 0.196818
0.030639 0.920995 0.136064
0.276083 0.623952 0.026470
0.006755 0.965360 0.065100
0.210237 -0.312451 -0.336992
-0.100873 -0.834319 0.121333
-0.017272 0.910859 0.361408
0.002947 0.978898 -0.318576
-0.302384 -0.317179 0.623611
-0.103049 0.560096 -0.209842
-0.032286 -0.455322 0.677179
-0.042989 -0.215344 -0.070375
-0.014452 0.896682 0.384203
0.095367 0.874396 -0.097515
0.084055 -0.253252 -0.124374
0.126728 0.678082 -0.309983
-0.098311 0.853101 -0.147541
0.322549 0.467479 0.230117
-0.265084 0.733066 -0.075478
-0.180377 0.581286 -0.172768
0.053260 -0.895787 0.029162
0.195806 -0.013795 -0.035449
-0.288357 0.279255 0.085446
-0.317626 0.403847 0.296831
-0.148744 -0.352614 -0.325792
0.084029 -0.587157 0.670152
-0.007818 -0.900551 -0.475588
0.080389 0.079062 0.586740
-0.157759 -0.178377 -0.410909
0.217342 0.851204 0.155027
0.261708 -0.149680 -0.089780
-0.258278 0.220447 0.008430
-0.093147 -0.926812 0.002557
-0.199063 0.833717 0.251073
-0.017967 -0.648320 0.167827
-0.193980 0.783213 -0.670166
0.100518 0.271268 0.550299
-0.215887 0.811041 -0.183950
-0.145562 -0.392433 0.073374
0.236087 -0.257241 0.490603
0.308305 -0.122486 0.130208
0.202768 -0.240470 0.553012
0.298354 0.238329 0.202000
-0.169928 -0.103820 -0.094912
0.350110 -0.298617 0.519075
0.111417 -0.380440 0.044117
-0.068791 0.712982 -0.290571
0.286329 -0.351262 0.506543
-0.335105 -0.330757 0.480184
-0.162522 -0.641502 0.569664
0.139777 0.897838 -0.030035
0.310500 0.305839 0.207095
0.169678 -0.472975 0.637248
0.148482 0.855881 0.283139
0.011884 -0.029997 0.641611
0.141827 -0.314180 -0.521906
-0.186631 -0.184781 -0.407424
0.256567 -0.054233 0.462841
0.078963 -0.915624 0.243048
0.181955 0.176616 0.511761
0.055332 -0.538599 0.682226
0.141609 -0.790330 0.319545
-0.328936 -0.180275 0.183259
-0.014748 0.436017 -0.231162
-0.533385 -0.163121 0.384769
-0.220786 0.205772 -0.096328
-0.315435 -0.375001 0.453776
-0.020707 -0.905209 -0.233396
0.076594 0.808342 -0.386614
0.460993 -0.169773 0.513637
-0.076850 0.789737 -0.358997
0.074308 -0.262219 -0.670779
-0.077173 -0.245924 -0.494481
-0.307147 0.602214 0.193233
-0.487020 -0.189033 0.435456
0.071525 0.177507 -0.220941
-0.241264 -0.488987 0.284246
-0.044195 0.765591 -0.184185
0.288445 0.069136 0.225355
0.275971 0.657771 0.376218
0.218769 0.830754 -0.137623
0.438962 -0.257281 0.389915
-0.163269 0.694757 -0.656983
0.410747 -0.354252 0.216375
0.277194 0.716724 -0.016118
0.181218 -0.390637 0.090111
0.308565 0.310524 0.318592
-0.109383 0.899975 0.032057
-0.449037 -0.207242 0.463399
-0.301556 0.512495 0.109380
0.298816 0.206077 0.261240
0.021117 -0.972336 -0.348625
-0.253413 -0.003357 0.448585
0.169929 -0.363953 -0.263909
-0.147038 -0.360903 -0.305757
0.235436 0.435046 -0.057281
-0.149942 0.690272 -0.358178
-0.030991 0.750833 -0.653385
0.336639 -0.437451 0.217641
-0.085570 -0.577996 0.206535
0.355519 -0.445204 0.162397
0.097758 0.350500 0.557563
0.217704 0.783658 -0.289151
-0.180982 0.631194 -0.217877
0.316574 -0.422385 0.356095
0.195363 -0.907622 0.024953
0.011313 0.532657 0.592165
-0.068398 0.424087 0.577906
0.061419 -0.672937 0.165725
-0.083122 0.897934 0.283794
0.212611 0.406823 -0.113952
-0.306843 0.545429 0.348781
0.251891 -0.159330 -0.133060
0.081215 0.727244 -0.303057
-0.190411 -0.385125 -0.077974
0.151200 -0.721215 0.268815
0.149903 -0.383688 -0.059833
-0.307464 0.426278 0.103935
0.016679 -0.317789 0.669504
0.112376 -0.306299 -0.559124
0.127083 -0.408280 0.161537
0.041158 0.374532 0.576425
0.234460 0.830617 -0.059735
-0.057843 0.726661 -0.255368
-0.095453 0.752626 -0.541700
-0.228890 -0.367530 0.442708
0.113556 0.643154 -0.257715
-0.264505 0.786506 0.143664
-0.222837 -0.247276 -0.382415
0.324338 0.443824 0.184873
0.188155 0.639583 0.503537
-0.176743 -0.390846 0.072418
0.098976 -0.209203 0.628098
0.304740 -0.086335 0.319684
-0.193715 -0.578535 0.508515
0.034949 -0.377023 0.669234
0.010179 0.966712 -0.206956
-0.483907 -0.239105 0.362020
0.257143 -0.047740 0.061657
0.187208 0.583688 -0.163592
0.132128 -0.316099 -0.492918
-0.005230 0.662156 -0.197492
-0.177452 -0.539030 0.319073
-0.416046 -0.180821 0.593490
0.134394 -0.699463 0.207304
0.188412 0.761096 0.399232
-0.305465 -0.153549 0.373876
-0.008331 -0.678405 0.684565
-0.149248 0.899635 0.052023
0.003729 0.981958 -0.068793
0.167324 -0.394276 0.126412
0.305057 -0.335494 0.569291
0.228158 0.764289 0.326365
0.184031 -0.636667 0.358679
0.283236 0.210370 0.134204
-0.031280 -0.938871 -0.368117
-0.225469 -0.348361 0.562244
0.204886 -0.280250 -0.669642
-0.024699 0.747643 -0.176461
-0.198696 0.800754 -0.540995
-0.310775 0.323898 0.262598
0.285260 0.324389 0.401245
0.151405 -0.174809 -0.328450
-0.320584 0.546326 0.253218
0.539918 -0.118407 0.427773
0.287823 -0.453728 0.301917
0.277305 0.157420 0.130206
-0.011147 -0.240915 -0.050622
0.308328 0.565917 0.325385
0.101920 -0.304789 -0.502216
0.170265 -0.704355 0.337111
0.190175 -0.595918 0.504431
-0.048986 -0.815144 0.110756
-0.330520 -0.197362 0.212147
-0.058566 0.897080 0.007944
-0.165558 0.612832 -0.209868
-0.241431 -0.391294 0.455383
-0.095823 0.814909 -0.346604
-0.408598 -0.330796 0.329577
-0.291710 0.239709 0.163159
-0.030881 0.304558 0.567581
-0.160324 0.683794 -0.648266
0.238089 -0.271926 0.436401
-0.165701 -0.077871 -0.088473
-0.383022 -0.211796 0.609062
-0.157230 0.816724 -0.679400
-0.136147 -0.492788 0.235846
0.296180 -0.471477 0.222238
-0.258194 0.792543 -0.001138
-0.160086 0.321889 -0.202847
-0.209066 -0.529338 0.527732
0.254425 0.134195 0.034703
0.244315 0.450774 -0.034933
0.157507 0.807548 0.385792
-0.124314 0.157422 -0.200991
-0.159320 -0.376699 -0.208670
0.288877 -0.285500 0.617326
-0.372538 -0.226187 0.609501
-0.318044 -0.343047 0.552275
-0.296262 0.288237 0.355454
0.301881 0.471467 0.385334
0.532366 -0.158689 0.387270
0.104847 -0.018155 -0.136750
0.261574 -0.198298 -0.161896
-0.138780 -0.792632 0.380714
0.168750 -0.843288 0.078002
0.016046 0.721252 -0.190800
-0.070777 0.903057 0.084632
-0.218547 -0.346641 0.384690
-0.122415 0.871161 -0.176165
-0.204257 -0.062542 -0.052197
0.176919 0.837970 -0.220517
0.285913 -0.251471 -0.121836
0.126782 -0.815731 0.369757
-0.478681 -0.277282 0.284183
0.104664 -0.512744 0.664356
0.088108 -0.505506 0.213271
-0.288875 -0.405589 0.424302
-0.125153 -0.355554 -0.189439
-0.077032 0.768286 -0.360690
-0.252344 0.556225 -0.003186
-0.286546 0.730656 0.218165
-0.270794 -0.458889 0.308826
-0.170159 -0.271081 0.571642
0.012983 0.935784 0.118490
0.290722 0.066834 0.243269
0.048490 0.798708 0.494916
0.037853 -0.945304 0.270673
-0.527800 -0.195059 0.356964
-0.207014 -0.269955 -0.672022
-0.123167 -0.198042 -0.587763
-0.319625 0.487070 0.168440
-0.168505 -0.599837 0.322996
-0.131271 -0.388274 0.641273
0.279115 -0.025191 0.162611
-0.218687 0.717041 -0.246269
-0.304372 -0.290088 0.020245
-0.273580 0.701585 0.003530
0.304322 0.565833 0.174321
0.078851 0.717623 0.538249
-0.125056 0.705257 -0.665307
-0.175047 -0.349982 -0.305172
0.200888 0.292223 0.497162
0.186358 -0.180765 -0.390859
0.007457 0.429406 0.588564
-0.273233 0.188827 0.070499
0.271320 0.225315 0.059752
-0.236762 -0.471856 0.417723
0.159628 -0.180699 -0.458150
0.258290 0.162018 0.032439
-0.109269 -0.345117 -0.170314
0.294051 -0.240424 -0.070134
0.084364 -0.245599 -0.405441
-0.185704 0.828555 -0.364492
0.057177 0.124821 -0.209785
0.150375 -0.006736 -0.114405
0.225615 -0.182173 0.519465
0.131402 -0.390030 0.060814
-0.294818 -0.041693 0.219446
-0.216578 -0.261817 -0.594092
0.519406 -0.112526 0.481595
-0.153509 0.402303 -0.203019
-0.046593 0.854616 -0.052511
-0.257849 0.382210 -0.019024
0.308335 0.305293 0.312206
0.314583 -0.141921 0.123664
0.314484 0.386450 0.119648
0.266345 0.311508 0.429087
-0.190875 -0.626035 0.402999
0.125262 -0.182524 -0.284411
-0.342834 -0.257133 0.609267
-0.152878 -0.706272 0.558012
-0.017677 0.964403 -0.236893
0.185587 0.834784 -0.536659
0.063203 0.480977 -0.221555
0.194232 0.011438 -0.040152
-0.107821 -0.185261 -0.160955
0.327573 -0.412639 0.169461
-0.119597 0.890559 0.196687
0.247871 0.215009 -0.026696
0.142883 0.867228 0.247716
-0.263996 0.777535 0.015787
-0.429294 -0.344353 0.221956
0.179188 -0.389126 -0.013896
0.212158 0.436808 -0.104526
0.195484 -0.716881 0.448601
0.286693 -0.016301 0.206445
0.159447 -0.363924 -0.270323
-0.050820 -0.615738 0.182337
-0.218633 -0.342348 0.371354
-0.062096 0.859987 0.409718
-0.315726 0.581638 0.259740
0.225505 -0.494654 0.386250
0.226957 -0.218082 -0.292586
0.026093 -0.907417 -0.502344
0.292641 0.077803 0.256554
0.100805 -0.611743 0.656951
-0.275065 -0.020744 0.150832
0.243979 0.777987 -0.140896
0.289500 -0.355757 0.526748
0.275333 0.708490 0.264133
-0.082583 0.675366 -0.295375
-0.256318 -0.361753 0.622980
-0.174274 -0.386567 -0.056623
0.003615 -0.812381 0.584565
-0.038792 -0.823791 0.557241
-0.464945 -0.295045 0.272768
0.278825 -0.299367 -0.094293
-0.229016 0.759930 -0.196746
-0.006515 0.585729 0.588212
0.206814 -0.347254 0.382624
-0.043298 0.559317 0.587681
-0.143831 0.852716 -0.600688
-0.144928 0.176391 -0.193701
0.294026 0.632918 0.127955
-0.166708 0.329423 -0.198025
0.315149 0.484127 0.330619
0.141017 -0.722640 0.207935
-0.280681 0.706215 0.286820
-0.181649 -0.171876 -0.321092
-0.245449 0.833040 0.050612
-0.204990 0.755348 -0.585429
-0.012370 -0.907890 -0.584588
-0.441900 -0.180623 0.536440
0.098456 0.826989 -0.366992
-0.194782 -0.648503 0.454220
0.530374 -0.101479 0.470299
0.158121 0.701959 -0.637153
0.295204 0.473668 0.072231
0.015833 -0.929908 0.334706
0.073179 0.795340 -0.468881
0.090341 -0.840966 0.141145
0.032204 -0.955137 -0.497950
-0.262426 -0.188461 -0.145097
-0.328806 -0.171082 0.190694
-0.218861 0.188583 -0.095072
-0.202479 -0.091610 0.538625
-0.236223 0.021061 0.053413
0.272979 0.409470 0.017045
0.309531 -0.125764 0.332498
0.298991 0.218452 0.228738
0.410166 -0.186529 0.587598
-0.204414 -0.547002 0.461470
0.301524 -0.261583 0.029420
-0.286809 0.672075 0.127868
0.159540 -0.356314 -0.669875
0.254986 0.378334 0.457186
-0.204150 -0.162336 -0.243308
0.097094 -0.332025 -0.135632
-0.124921 0.812273 -0.671755
0.245757 0.232639 -0.043320
0.296142 0.000522 0.282069
0.185094 0.867556 -0.136803
0.044188 0.914870 0.228822
-0.163907 -0.798765 0.133976
-0.221392 0.543070 -0.076077
-0.049521 -0.522867 0.194952
-0.323888 0.487887 0.219252
0.274096 0.119732 0.135003
0.163257 -0.366254 -0.278526
-0.106308 0.676879 -0.304843
0.050455 -0.952796 0.155557
0.051108 -0.929800 -0.084937
-0.037727 -0.939092 -0.231863
0.125449 0.682696 0.525462
-0.021073 0.790587 -0.135504
-0.203404 0.541281 0.514493
-0.081571 -0.918463 0.015800
0.050522 -0.927948 0.295791
0.196179 -0.715109 0.456726
0.088149 0.746116 -0.636370
-0.295723 -0.267685 0.348325
-0.215025 0.745519 -0.286495
0.147240 0.706150 -0.431222
-0.198213 0.785849 -0.527877
-0.200272 -0.145405 -0.197483
-0.217445 -0.487393 0.581223
-0.225811 0.136403 -0.038979
-0.056155 -0.482450 0.191135
-0.062804 0.827435 -0.129901
-0.004323 0.970305 -0.034160
0.205406 0.756494 -0.667023
-0.222970 -0.319311 0.392394
-0.193041 -0.627297 0.407741
-0.017842 0.417532 0.588619
0.209541 -0.171936 -0.250486
-0.344860 -0.411715 0.308510
-0.121134 -0.348502 -0.227108
-0.270584 -0.342452 -0.019392
0.334824 -0.323557 0.495120
-0.050522 0.455094 -0.228149
0.310132 -0.283166 0.607911
-0.184682 -0.388948 -0.054563
-0.221181 0.131896 -0.052039
-0.291016 0.002227 0.293126
0.303928 -0.080028 0.320760
-0.080014 -0.237607 -0.662530
0.260547 -0.481261 0.196703
0.164183 0.462532 0.534374
0.219390 -0.365401 -0.116784
0.132080 -0.193485 -0.279666
0.455368 -0.148014 0.552251
-0.016114 -0.567331 0.186593
-0.240009 0.340082 -0.060458
-0.283688 -0.037652 0.164093
0.508799 -0.195327 0.388687
-0.164231 -0.633664 0.573625
0.013404 -0.439517 0.678602
0.449961 -0.273310 0.336584
-0.281779 -0.474993 0.211201
-0.000106 -0.907306 -0.240520
-0.030876 0.928102 0.146975
-0.069914 -0.250076 -0.189115
0.207756 -0.134860 -0.179330
0.264733 -0.207164 0.427984
0.084444 -0.279411 -0.131195
0.047427 -0.908558 0.350309
0.153640 -0.393102 0.642635
0.009607 -0.543253 0.686931
0.044976 0.318519 -0.240379
0.013352 -0.979801 -0.155962
0.313838 -0.436303 0.294657
0.189185 0.387582 0.516408
-0.183671 0.745599 -0.460506
-0.092745 0.810820 0.446261
-0.031573 -0.609979 0.684725
0.088878 0.058506 -0.175054
0.255562 -0.020852 0.077066
0.390684 -0.296173 0.446979
-0.297769 -0.069217 0.344638
0.243058 0.612105 -0.077418
-0.217070 -0.289586 -0.338372
-0.042551 -0.943451 -0.533111
-0.204269 -0.013508 0.521279
0.140369 0.679633 -0.330630
-0.252762 0.809288 0.001838
-0.241857 -0.290703 -0.229323
0.193491 -0.398661 0.336323
0.111742 0.886918 0.214334
0.279311 0.112633 0.165717
0.255651 -0.047329 0.462143
-0.220409 0.818064 0.255691
-0.280437 0.178768 0.116218
0.242447 -0.251012 0.446800
0.055416 0.593454 -0.215500
0.362422 -0.268747 0.552691
0.297308 0.354424 0.384339
-0.085723 0.872691 -0.080116
0.170995 -0.130884 -0.198488
0.229746 -0.478225 0.555812
0.264874 -0.358244 0.584029
-0.178591 0.870460 -0.140495
0.298885 0.335622 0.100892
-0.390293 -0.289217 0.427056
-0.155221 -0.379709 -0.199192
0.100906 -0.218482 -0.384835
-0.026834 0.128462 0.587255
0.078214 0.883129 -0.183012
0.242090 -0.229024 -0.251323
0.250813 0.296317 0.449714
-0.227862 0.608978 -0.104179
-0.277956 0.749088 0.225224
-0.420698 -0.245434 0.438746
0.231679 0.302178 -0.098730
-0.101327 -0.202887 -0.524602
0.249659 -0.231422 -0.221427
-0.029273 -0.953444 -0.227328
-0.072783 -0.763110 0.130249
-0.451892 -0.309990 0.265167
0.208223 -0.222500 -0.549852
-0.073063 0.238925 -0.235619
0.303601 0.600515 0.303091
0.317808 0.499793 0.277222
-0.121276 0.835467 -0.559012
-0.175475 -0.196514 0.564892
0.270814 -0.028268 0.430085
-0.133391 -0.731137 0.574785
-0.237965 0.764986 0.316879
0.095738 -0.229261 -0.274136
0.130404 -0.323566 -0.592081
0.111335 0.720055 -0.521489
0.041051 -0.914857 -0.126540
-0.192463 0.332568 -0.168081
0.238473 0.833996 -0.020005
-0.204712 -0.370767 0.626508
0.057845 -0.828646 0.520371
-0.198096 0.274933 -0.154443
0.072664 0.329330 -0.235334
-0.325795 -0.273904 0.619069
0.195843 0.077917 0.516263
0.082620 -0.245906 -0.110902
-0.241689 -0.207101 -0.232410
-0.191186 -0.636855 0.401267
-0.081540 0.781810 -0.546971
-0.226218 0.107482 -0.012889
-0.075434 0.813550 0.462704
-0.127485 -0.196349 -0.636388
-0.086966 0.803220 -0.441230
0.197291 -0.908987 0.023446
-0.252967 -0.340534 0.565213
-0.008034 -0.891053 -0.104929
-0.114690 0.692088 0.528011
-0.197069 -0.437969 0.630024
0.298869 0.198173 0.257021
-0.099621 0.816823 -0.477662
0.481620 -0.198181 0.432691
-0.065320 0.711385 -0.237098
0.161886 -0.352761 -0.670432
0.466661 -0.133245 0.554244
-0.038630 0.924506 0.170332
0.298645 0.193998 0.262179
0.006793 -0.727818 0.139375
-0.104329 -0.468029 0.661287
-0.263856 0.069733 0.107167
-0.169301 -0.187109 -0.563928
-0.164072 -0.334983 -0.355186
-0.142717 0.303197 0.531664
-0.292675 0.412494 0.058348
-0.172142 -0.177914 -0.293739
0.116448 -0.689150 0.187319
0.298625 0.202316 0.255008
-0.142791 0.175015 -0.193726
0.012922 -0.631545 0.171730
0.119170 0.509054 -0.203778
-0.168859 -0.176821 -0.341293
0.241343 -0.353887 0.537326
0.162564 0.892975 0.078703
-0.094006 -0.303164 -0.517520
0.263674 -0.195282 0.452885
-0.177848 -0.728442 0.448639
0.287824 0.385580 0.051783
0.145843 -0.810547 0.131823
-0.201138 0.671996 -0.243474
0.051455 -0.239540 0.654986
0.225706 -0.246606 -0.345322
-0.098279 0.758701 0.496332
0.331785 -0.376098 0.375084
-0.168630 -0.728603 0.378302
0.004207 0.980243 -0.318999
0.207266 -0.544837 0.461253
-0.274380 0.730812 0.273249
-0.123275 -0.363495 -0.124788
-0.295512 -0.255047 0.309132
0.151760 0.677812 -0.320620
0.152815 -0.383361 -0.086618
-0.193208 -0.171831 -0.356111
0.079584 -0.217464 -0.641529
-0.278155 0.715237 0.067369
-0.033175 0.761329 -0.171536
-0.214879 0.841825 -0.106609
0.172760 0.404186 0.528008
0.128646 -0.388217 0.048911
-0.217959 0.730442 0.401159
-0.164736 0.704233 -0.435901
0.473994 -0.283404 0.280392
-0.111928 -0.860360 0.197226
0.327895 0.415932 0.199248
-0.047598 0.609210 -0.212488
-0.279826 -0.495067 0.176236
-0.227430 -0.253331 -0.321455
0.167007 -0.178293 -0.352664
-0.162252 -0.790065 0.148882
-0.210840 -0.130695 -0.138909
-0.297572 0.307044 0.357859
0.101409 -0.334020 -0.656382
0.101390 -0.629899 0.208297
-0.163696 -0.156722 -0.234384
-0.143304 0.879425 -0.181287
0.151280 0.872141 -0.169055
-0.003779 0.025198 0.622353
-0.296835 -0.233825 0.385292
-0.033188 -0.920923 -0.313404
-0.425885 -0.225005 0.470363
0.019953 0.856450 0.436360
0.172903 -0.308580 -0.567790
-0.075464 -0.278337 -0.531600
-0.299934 0.579303 0.139785
-0.154369 0.170813 0.527061
0.294225 0.590718 0.121539
-0.174623 0.849816 -0.262348
-0.129129 0.851830 -0.272765
0.070095 0.189889 -0.223105
0.134871 0.091713 0.557225
-0.162949 -0.341043 0.620330
-0.244593 0.606177 0.461617
-0.261499 0.732445 -0.091450
-0.458251 -0.146218 0.563445
-0.235333 -0.169880 0.498347
-0.235797 0.824013 0.171922
-0.276227 -0.315511 -0.067294
0.118408 -0.792698 0.505208
0.207861 0.200074 -0.120781
0.289068 0.095489 0.222635
0.209199 0.435319 -0.110749
-0.217898 -0.275726 -0.654298
0.517920 -0.216595 0.337526
-0.261740 -0.383836 0.165561
-0.096089 0.822266 -0.332615
-0.304898 0.296284 0.256541
0.290551 -0.073320 0.139787
-0.006881 0.445462 -0.229851
-0.176422 0.891535 -0.023452
-0.101567 -0.214105 -0.267946
-0.282996 0.006325 0.197627
0.488869 -0.117536 0.527822
0.026861 -0.621192 0.175645
-0.322911 -0.370960 0.420832
0.023807 0.609373 -0.203470
0.311898 0.547456 0.275259
0.110702 0.521773 -0.207208
-0.149781 0.691750 -0.658670
-0.311693 -0.301119 0.621987
-0.053439 0.848878 -0.066153
0.050670 -0.266774 -0.054405
-0.049719 -0.249538 -0.638932
0.081409 0.758560 -0.403391
0.260506 0.391594 -0.009787
0.510750 -0.219060 0.343719
0.149650 -0.692459 0.262691
-0.105157 -0.629506 0.654252
0.324405 0.433149 0.301846
-0.377651 -0.391681 0.246211
-0.259836 0.216613 0.020035
0.059359 -0.953063 -0.026824
0.097131 -0.066309 -0.116912
0.204639 0.738146 -0.531350
0.101982 -0.731376 0.619533
0.149814 0.859818 0.257943
0.024723 0.926947 0.221107
0.295127 0.173729 0.308567
0.073226 -0.695801 0.157627
0.058255 0.087527 -0.194953
-0.146479 -0.570700 0.271017
0.256996 -0.401920 0.597972
-0.260332 0.013282 0.431777
-0.208424 0.584883 0.504585
0.106213 0.655768 -0.263106
-0.029486 -0.437499 0.165289
-0.158239 -0.730649 0.281391
-0.088014 -0.328091 -0.073892
0.123989 -0.820863 0.356703
0.129367 0.846617 -0.627862
-0.129940 -0.322289 -0.338301
0.204409 -0.047701 -0.029095
0.169169 0.787188 -0.682616
0.047876 -0.238582 -0.587392
-0.186728 0.756333 -0.680527
-0.013221 0.910702 0.363149
-0.081038 -0.164009 -0.102536
0.316826 -0.273534 0.158478
-0.084941 -0.633430 0.190249
-0.085758 0.843512 -0.152714
0.268348 0.168056 0.069786
-0.063002 0.620653 -0.216744
0.084433 -0.033798 -0.137524
0.037164 -0.958616 -0.390988
0.196194 0.873122 -0.072012
0.215015 -0.319573 0.408811
-0.133756 0.542514 -0.198688
0.280870 0.351207 0.417472
-0.073081 -0.926058 0.047266
0.314015 -0.141457 0.123471
0.240990 0.267202 -0.070416
0.140128 -0.759311 0.523166
0.076096 -0.295464 -0.611632
0.094065 0.860352 -0.198062
-0.218136 -0.292910 -0.324035
0.120399 -0.376913 -0.003023
-0.224730 0.829177 -0.105941
-0.324852 0.449854 0.226933
-0.319562 0.412153 0.291227
0.197490 -0.714221 0.440701
0.199788 0.730499 -0.553887
0.240116 -0.245002 -0.261208
0.176011 0.802457 0.360394
0.207049 0.120591 0.497160
-0.321270 -0.220331 0.110195
-0.448085 -0.303400 0.292536
0.278351 0.234528 0.382677
0.252187 -0.357388 -0.023959
-0.227440 0.382771 -0.082368
-0.269711 -0.389025 0.528549
0.463925 -0.142443 0.551931
-0.251788 0.566976 -0.005063
0.106904 0.567062 0.550016
0.293883 0.192984 0.208528
-0.443627 -0.198841 0.494148
0.085782 -0.174816 -0.105146
0.196305 0.805769 -0.424562
0.314860 -0.239603 0.084046
-0.064474 -0.920130 0.236346
-0.156561 -0.086359 -0.087737
0.271134 0.251731 0.401453
-0.060316 -0.899139 0.054867
-0.208641 0.767987 -0.651997
0.239261 0.263493 0.460592
-0.168520 -0.391224 0.043633
0.033475 -0.862131 0.071111
0.295423 0.055337 0.296791
0.286977 -0.178535 0.405125
0.020788 -0.704795 0.148086
-0.135003 0.625872 -0.234972
-0.167738 -0.174099 -0.400402
0.244873 -0.446462 0.537110
-0.317943 0.524413 0.298033
-0.161728 0.892670 0.100082
-0.120355 0.312735 0.543249
0.296517 0.136778 0.273527
0.187557 -0.308100 -0.442932
-0.351425 -0.278744 0.549624
-0.191079 -0.384874 0.234374
-0.297379 0.288857 0.115438
0.288237 -0.178340 -0.055133
0.128601 -0.770654 0.137844
0.188696 -0.580250 0.526593
-0.236126 -0.397364 0.442227
0.538046 -0.147725 0.396862
0.211755 -0.336547 -0.252369
-0.192830 0.046349 -0.057828
-0.312910 -0.136127 0.133982
0.058936 -0.922493 0.299969
0.238728 0.842743 0.037369
-0.542821 -0.123054 0.423784
-0.173608 0.717097 -0.449766
-0.133100 0.890877 0.151222
-0.293275 0.409034 0.398711
-0.061811 -0.177965 0.653564
-0.199705 -0.538604 0.396850
0.316927 0.380536 0.330312
-0.240471 -0.367446 0.165826
0.169601 0.364730 -0.183866
-0.000006 0.828592 0.475354
0.135918 0.846011 -0.461641
0.469973 -0.130689 0.555373
-0.069476 0.515842 -0.216105
0.307168 0.282899 0.224649
0.315004 0.523395 0.244618
-0.074239 -0.264679 -0.408572
0.218478 -0.381429 0.022380
-0.092027 0.344928 0.558577
0.288704 0.083662 0.357891
-0.403091 -0.377032 0.204013
-0.313860 0.589446 0.287935
0.216312 0.494002 -0.083430
-0.276834 0.670184 0.035531
0.312673 -0.227338 0.299499
-0.191844 -0.624652 0.496544
0.132614 -0.807549 0.305347
-0.073794 -0.286977 -0.247276
0.191763 -0.690315 0.382047
-0.150745 -0.609397 0.284573
0.265402 0.315197 0.017165
0.058757 0.767217 -0.252385
-0.142691 0.252649 0.530095
-0.303667 0.304196 0.316225
0.008551 0.756622 -0.168800
0.094819 0.034544 0.591948
-0.100738 -0.304155 -0.297690
-0.003386 0.905918 0.372966
-0.182449 -0.190755 -0.625300
0.189398 0.788489 0.365167
0.175357 0.454192 0.528744
-0.424885 -0.261688 0.410665
0.305116 0.264975 0.252670
0.156551 0.688093 -0.658552
0.143313 0.848723 -0.638822
-0.076905 -0.240188 -0.589568
0.219430 -0.395118 0.630282
-0.220585 0.206604 -0.096550
0.127838 -0.733396 0.162848
-0.101854 -0.702559 0.164830
-0.253201 0.029493 0.444042
-0.153631 0.718941 -0.506956
-0.182701 0.689728 0.481923
0.182752 -0.197771 -0.655860
-0.280942 -0.080651 0.089700
0.111412 0.423150 -0.217034
-0.137281 -0.185218 -0.390619
0.220156 0.659731 0.464895
-0.266128 0.510253 0.026891
0.124427 0.380292 0.551365
-0.144989 -0.180974 -0.393668
-0.179978 0.503365 -0.153780
0.195484 -0.907743 0.024895
0.130287 0.711125 -0.668017
-0.260086 -0.225663 -0.181708
0.303695 0.260373 0.277831
-0.036789 0.268624 0.565793
0.468349 -0.140694 0.546953
-0.460768 -0.163713 0.527493
0.164607 0.731713 0.459661
0.009510 -0.902641 -0.600867
-0.075105 -0.442686 0.666301
-0.164740 -0.395045 0.096106
-0.078412 -0.291555 -0.606816
-0.190473 0.482394 -0.137008
-0.197755 -0.171566 -0.310007
-0.129203 0.892085 0.151858
0.110156 0.886481 -0.059770
-0.188530 0.726950 -0.379109
0.125767 0.876491 0.232519
0.296583 -0.005895 0.301701
0.095319 0.725970 -0.643870
-0.193118 -0.171698 -0.357004
-0.046126 0.044747 -0.185376
-0.312162 0.340143 0.268003
0.299370 0.612610 0.199774
-0.093101 0.744517 -0.585148
-0.063324 -0.278918 -0.065283
-0.024912 -0.908987 -0.309801
0.060924 0.255543 0.560720
0.011952 -0.631235 0.171873
-0.123087 -0.345155 -0.278150
-0.096300 -0.838680 0.473171
0.276330 -0.257172 -0.151224
-0.233705 -0.006172 0.039270
-0.314292 0.590199 0.270346
0.259761 0.655326 -0.065075
0.045990 -0.915723 -0.118037
-0.445233 -0.201691 0.482959
-0.195221 0.737161 -0.576308
-0.190766 -0.384665 0.257538
-0.001540 -0.895975 -0.582920
-0.284670 -0.006286 0.369033
-0.163175 -0.783789 0.191085
-0.242766 0.828427 0.002019
-0.146141 -0.779976 0.285644
-0.312979 -0.369042 0.427058
0.077601 -0.094674 0.634350
0.034590 -0.957401 0.195557
0.079086 0.802876 -0.609007
-0.053430 -0.925844 -0.073028
-0.295367 0.257538 0.317539
0.318238 0.444052 0.320368
-0.104194 0.730082 0.514634
0.179671 0.836803 -0.372952
-0.273917 -0.275010 -0.135296
0.125208 0.877291 -0.179613
-0.320413 -0.441438 0.139225
0.321517 -0.149143 0.193030
-0.176525 0.228950 0.510475
0.135633 0.797895 -0.673609
-0.106623 -0.319553 -0.288739
-0.172731 0.094216 -0.134557
0.132106 -0.111304 -0.102720
0.220290 -0.293291 0.435747
-0.128466 0.874113 -0.220991
-0.201509 -0.226086 0.529983
-0.293833 0.693297 0.198615
0.182593 -0.477305 0.626773
-0.317373 0.499410 0.316763
0.050184 -0.940136 -0.279813
0.035990 -0.883824 0.424313
0.321376 0.469262 0.193950
0.136920 0.826998 -0.666412
-0.088142 -0.020993 0.614026
-0.320903 -0.221235 0.108132
-0.158264 -0.620586 0.299665
0.182566 -0.588884 0.540092
-0.162348 -0.325639 -0.408411
0.265588 0.752253 -0.052660
0.196494 -0.517866 0.296251
-0.164775 0.620738 -0.224224
-0.268034 0.124623 0.094196
0.229906 -0.473808 0.371124
0.172058 -0.165691 -0.292222
-0.197738 0.750211 -0.406694
0.119634 -0.689766 0.618325
0.286605 0.368041 0.412907
-0.036483 -0.302976 -0.016777
-0.329096 -0.210521 0.252380
-0.152928 0.824197 -0.677987
-0.285597 -0.450041 0.283136
-0.002395 0.934661 0.280006
0.086764 0.747911 -0.454174
-0.187999 0.834141 0.281587
0.158680 0.897112 0.035303
0.483479 -0.121086 0.535491
0.323986 -0.224316 0.160834
-0.328933 -0.183332 0.253502
-0.288674 0.140387 0.226886
0.211032 0.630320 -0.169614
-0.072557 -0.230747 -0.504163
-0.102491 -0.875213 0.205924
-0.227204 0.815469 0.247746
0.308029 0.477917 0.107056
-0.060487 -0.258287 -0.587877
-0.044133 -0.953336 -0.486760
-0.000854 0.984062 -0.346363
-0.146936 -0.829100 0.173421
-0.264923 0.120477 0.085496
0.088532 -0.901462 0.199380
0.214672 -0.379863 -0.050582
-0.079393 -0.895325 0.302244
-0.297098 0.536691 0.381000
-0.031835 -0.073411 0.651758
-0.144421 -0.616291 0.615471
-0.020216 0.043640 -0.188964
-0.210919 -0.201656 -0.305077
0.164643 -0.647124 0.549158
0.205037 0.756813 -0.393879
0.231284 -0.402554 0.441160
-0.540603 -0.144987 0.399624
0.290877 0.236604 0.160228
0.165176 0.844328 -0.426279
-0.308458 0.315723 0.278919
-0.223379 -0.377981 0.188165
-0.216035 -0.255176 -0.425607
-0.026926 -0.978319 -0.007861
-0.221088 -0.312415 0.420568
0.243768 0.727741 -0.171356
-0.194182 -0.440944 0.631751
0.147822 -0.594415 0.609181
0.325575 -0.209242 0.131746
-0.188890 -0.668252 0.489740
0.039549 -0.956081 -0.403714
-0.182466 0.741912 -0.458589
0.304342 -0.308384 0.190682
-0.155245 -0.797191 0.207608
0.289692 -0.069502 0.144514
-0.276878 0.707919 0.034437
0.316833 -0.185887 0.086320
-0.137790 -0.169674 0.599458
-0.122873 0.264084 -0.222915
-0.204453 0.805208 -0.307290
-0.209829 -0.436479 0.342317
0.320403 -0.278545 0.187599
-0.078680 0.755056 -0.378730
0.061292 -0.954489 -0.003611
-0.310849 -0.216429 0.005324
-0.185737 -0.697645 0.472899
-0.027483 -0.266822 0.665418
0.198334 0.283219 0.498217
0.177652 -0.172043 -0.344983
0.050600 -0.904759 -0.074159
0.232160 0.474975 0.487202
0.161939 0.459264 0.534788
0.140515 -0.543219 0.254611
-0.128050 0.894601 0.130076
0.070745 0.892071 0.017631
0.270540 0.611152 0.014353
-0.184202 -0.688403 0.488248
0.051082 -0.505742 0.681730
0.057265 0.786473 -0.213661
0.183317 0.834772 -0.359248
0.138117 0.820162 -0.667116
-0.117426 0.333170 -0.229241
-0.039149 -0.663462 0.167658
0.188620 -0.553395 0.356347
0.045870 0.877332 0.389942
0.135742 0.852953 -0.622402
0.000957 -0.533694 0.189963
-0.172685 0.863833 0.206376
0.056620 -0.961440 0.074588
0.368471 -0.355842 0.362898
-0.293862 -0.016499 0.300851
0.082274 0.506431 0.566859
0.305494 -0.160713 0.345488
-0.338334 -0.267502 0.249789
0.293219 0.601604 0.117887
-0.041185 -0.922796 0.317940
0.317829 -0.473302 0.154727
-0.099088 -0.249487 -0.671642
0.349940 -0.291040 0.515724
-0.285115 0.276177 0.384580
-0.215723 -0.253373 -0.428084
-0.193881 -0.233363 -0.673437
0.055388 0.379712 0.575153
-0.056662 0.679922 -0.219044
0.082657 -0.226793 -0.663253
-0.025906 0.922545 0.145671
-0.206713 -0.452880 0.352165
-0.129913 -0.195020 -0.624255
0.335063 -0.374903 0.379702
-0.025351 0.434246 -0.230461
-0.253688 0.336479 0.454122
-0.087623 0.326579 0.557746
-0.260894 0.245114 0.427981
0.273148 0.689207 0.328542
0.047543 -0.454260 0.677780
-0.084454 0.785863 -0.455239
-0.255796 0.009779 0.099360
-0.407473 -0.201521 0.576285
0.094254 0.725382 -0.640844
0.275167 0.185763 0.103145
0.240885 0.193337 -0.041145
-0.052386 -0.941884 -0.120059
-0.206534 0.857433 0.143229
0.220624 0.764751 -0.243887
-0.288533 0.049840 0.269425
0.293362 0.082133 0.257493
0.366412 -0.263022 0.541230
-0.146692 0.843302 -0.422680
-0.131632 -0.770630 0.135711
-0.075719 0.408287 -0.232872
-0.138664 -0.415862 0.179964
-0.032834 0.925124 0.162356
-0.053145 -0.208755 -0.077849
0.273462 0.576501 0.038095
-0.127346 0.864369 -0.253531
-0.302506 0.279347 0.228878
-0.034269 0.757552 -0.172590
0.303443 -0.078172 0.219965
0.467746 -0.133271 0.556879
-0.091635 -0.299978 -0.271598
-0.270650 0.302171 0.016132
-0.088152 -0.212720 -0.188033
-0.028989 0.554132 -0.212272
0.121406 -0.376253 -0.011345
0.114724 0.855911 0.343313
0.208774 0.634532 -0.180370
0.165043 -0.729161 0.342441
-0.226549 -0.333935 -0.215298
-0.100080 -0.228770 -0.336706
-0.081341 0.371372 0.566624
0.009218 0.912340 0.352107
-0.277733 -0.338475 0.013413
0.094262 -0.865924 0.363472
0.150406 0.402393 -0.198239
-0.076901 -0.881305 0.360795
-0.293840 -0.147176 0.012457
-0.041017 -0.889133 -0.003180
0.065949 -0.930969 -0.029055
-0.247010 -0.248727 0.431882
0.219615 -0.279553 -0.651933
-0.214676 -0.383089 0.164780
0.270305 0.309542 0.033160
0.539113 -0.127479 0.421403
0.281940 -0.315946 0.050011
0.017109 -0.962407 -0.522720
0.111459 -0.309557 -0.507125
-0.119762 0.312624 -0.228031
0.314261 -0.473341 0.153380
-0.306197 -0.160259 0.044815
0.304815 0.600458 0.275897
0.230063 -0.242954 -0.317585
-0.271901 0.725561 -0.018383
0.147496 0.853184 -0.473937
0.026619 0.918212 0.080762
0.206337 0.796174 -0.512951
-0.076732 -0.933234 0.029485
0.045307 0.430138 0.581793
-0.279742 0.722640 0.097390
0.000487 -0.941791 -0.422341
-0.159953 -0.748716 0.194768
-0.511701 -0.231360 0.326343
-0.414508 -0.253718 0.430397
-0.085536 0.788108 -0.485611
0.191958 -0.166766 0.553864
0.251784 0.791830 -0.067099
0.131730 -0.326392 -0.394558
0.272030 -0.177155 0.442354
0.375885 -0.332901 0.396572
-0.140455 -0.307538 -0.677307
0.130766 -0.189549 -0.644703
0.278569 0.340704 0.046787
0.143741 0.690826 -0.660874
-0.159499 0.877012 0.168407
0.286896 0.204067 0.357704
0.049779 0.051681 -0.183877
0.114678 -0.511838 0.229108
-0.228025 0.394856 0.490825
-0.057980 -0.922593 0.267069
0.111771 -0.816666 0.132042
0.275002 0.305552 0.048347
-0.025982 0.264350 -0.242097
-0.153303 0.709275 -0.560916
-0.289542 -0.192244 -0.069694
0.012373 -0.865807 0.061515
0.123913 0.037487 0.574716
-0.310931 0.323956 0.234442
-0.113176 -0.416474 0.651951
-0.322172 -0.187561 0.132369
-0.178146 -0.729384 0.447033
-0.280412 -0.335637 0.096457
-0.158183 -0.603674 0.299801
0.268464 -0.341627 0.129611
0.255982 0.025417 0.091256
0.147483 -0.343412 -0.331114
0.093477 -0.309181 -0.135757
0.238353 -0.224656 -0.263326
-0.273109 0.655139 0.017560
0.325004 0.402455 0.165890
-0.047006 -0.945562 -0.108100
0.319647 -0.156299 0.275984
-0.020615 -0.243101 -0.052188
0.261199 0.199826 0.024416
-0.125070 0.857715 -0.267824
-0.230133 -0.467854 0.397050
-0.213883 -0.506825 0.415003
0.202674 -0.381214 0.271462
0.320501 -0.440167 0.249552
0.234377 -0.255476 -0.283308
0.242629 -0.367206 -0.024291
-0.226158 -0.203004 -0.270929
0.182674 -0.688196 0.363420
0.294319 0.659132 0.171272
-0.290355 -0.488922 0.171404
-0.269692 0.387870 0.441653
-0.026905 -0.687784 0.151757
-0.427773 -0.170342 0.587231
-0.212315 -0.389334 0.371442
-0.156863 -0.748301 0.186516
-0.031478 0.648887 0.574644
0.202608 -0.696253 0.415936
-0.286817 0.113198 0.325341
0.139463 -0.581327 0.258629
0.023586 -0.978859 -0.199866
0.206212 -0.386880 0.389611
0.513700 -0.226708 0.329725
-0.085581 -0.139739 -0.107803
-0.133072 0.898286 -0.032300
-0.324478 0.477534 0.254965
0.003952 0.981598 -0.077293
0.002813 -0.902628 -0.453863
-0.017804 -0.453983 0.173582
0.087273 0.766594 -0.462727
-0.302824 -0.065871 0.236089
-0.287683 0.107603 0.326077
-0.289280 -0.321498 0.057653
-0.173862 -0.527858 0.296014
0.012428 -0.532832 0.686863
0.061251 -0.931267 0.239210
0.296649 -0.242877 -0.049858
0.127943 0.837501 -0.650916
0.288589 0.212481 0.347441
-0.183609 -0.197131 -0.580236
0.085598 0.823078 -0.529546
0.190466 -0.130175 -0.196041
-0.256849 0.132738 0.436863
-0.287318 0.172722 0.184318
0.272064 0.489321 0.027413
0.120033 -0.125801 0.609296
0.271165 0.206342 0.070282
-0.157509 0.108313 0.532443
0.205956 0.847544 0.188674
-0.274881 0.259643 0.041726
-0.204194 0.805905 -0.325281
-0.208328 0.839906 0.213747
-0.018528 0.913059 0.083442
-0.055504 0.748040 -0.200310
0.225638 -0.229554 -0.353127
-0.167344 -0.601994 0.321234
0.214065 0.271701 -0.132967
0.036009 0.735385 -0.218299
-0.173757 -0.304708 -0.505300
0.212518 -0.384929 0.201877
0.282080 0.417403 0.034523
0.058135 -0.746418 0.648995
-0.165286 -0.177251 -0.385660
-0.319873 -0.213647 0.107942
-0.289809 0.178060 0.269081
-0.066377 -0.386470 0.659935
0.243404 0.315555 -0.061231
0.118849 0.842258 0.375765
-0.168585 -0.100171 -0.089092
-0.050624 -0.078305 -0.130377
-0.505015 -0.220273 0.358947
-0.027082 -0.907874 -0.222404
-0.094413 0.397635 -0.231019
0.219745 0.763917 -0.297462
0.277367 0.688359 0.313016
0.203391 0.264738 -0.151176
0.193595 -0.640040 0.380959
-0.275388 0.174846 0.093930
-0.215017 0.852270 -0.069066
0.114696 0.850739 -0.583495
-0.270895 0.696465 -0.017099
0.376963 -0.318882 0.434091
0.293952 0.580885 0.111833
0.002249 0.981367 -0.339227
0.321593 0.359357 0.294058
0.058334 -0.873456 0.081180
-0.272142 0.770241 0.190684
0.022930 0.473795 -0.224382
0.130828 -0.674963 0.222041
-0.538358 -0.118347 0.442478
-0.172079 0.349705 -0.193302
-0.122389 -0.363943 -0.117522
-0.014730 0.912605 0.068757
0.329017 0.396056 0.228815
0.090072 0.398156 0.566128
-0.055106 0.431579 0.584435
-0.161442 -0.176413 -0.354945
-0.268248 0.409552 0.004957
0.064347 -0.945416 0.082108
-0.354921 -0.319378 0.370884
0.058580 -0.252534 -0.069702
-0.083434 -0.270556 -0.441595
-0.155965 -0.671694 0.565088
0.077364 -0.228186 -0.557163
-0.033968 -0.418899 0.670479
-0.211964 -0.381076 -0.093658
-0.157037 0.718946 -0.502484
0.264533 0.399233 -0.000226
-0.309953 0.341536 0.316671
0.105860 -0.315001 -0.333475
0.084462 -0.252045 -0.114118
0.011687 -0.962970 -0.404888
-0.197344 0.157839 -0.132225
0.254248 0.120303 0.440714
0.327337 0.382872 0.213386
0.154482 -0.143306 -0.196655
0.244371 -0.468080 0.416465
0.194645 -0.715310 0.409589
-0.252714 0.205961 0.000972
0.182334 -0.189125 -0.634211
0.174250 -0.858470 0.060345
-0.161177 -0.389734 -0.000782
0.218735 -0.423262 0.624417
-0.234490 -0.330957 -0.191910
0.157159 0.682711 0.505013
0.112051 -0.330837 -0.666845
-0.172007 0.042269 0.539753
0.121877 -0.384455 0.047960
-0.121525 0.741687 0.492668
-0.302263 -0.065424 0.306301
0.164638 -0.562366 0.286942
-0.092947 -0.220164 -0.298466
0.143252 0.692317 -0.367326
-0.055186 -0.299050 0.656713
-0.312406 0.338154 0.208791
-0.210854 -0.254699 -0.564274
-0.026338 -0.977865 -0.008924
-0.309622 -0.256470 0.020490
0.156065 0.082758 -0.140474
-0.125641 0.835773 -0.494620
-0.001747 -0.758465 0.132122
-0.313201 0.596678 0.235627
-0.329268 -0.187438 0.189039
0.092086 0.591001 -0.221634
-0.079012 0.364372 -0.236936
-0.289213 0.013530 0.269352
0.049848 -0.368686 0.078485
0.198570 0.722991 -0.573302
-0.013523 0.216415 -0.235108
-0.030890 0.929134 0.184757
-0.020540 -0.969836 -0.103131
-0.146537 0.843709 -0.423185
-0.228991 -0.312590 -0.243843
-0.293784 0.692646 0.196667
0.212296 -0.527300 0.419415
0.296595 0.686573 0.106975
-0.188219 -0.914406 0.020070
0.105033 -0.791906 0.534297
0.287473 -0.381609 0.488303
0.163762 -0.178152 -0.431327
-0.165387 -0.396592 0.150623
-0.038828 -0.865725 0.467260
0.525450 -0.185927 0.371024
-0.161536 -0.392488 0.055043
0.213051 -0.253363 0.529451
0.060646 0.907465 0.181285
-0.191119 -0.170226 -0.316761
0.080842 -0.276929 -0.437059
0.090391 0.273654 0.552492
0.125634 -0.272383 -0.684016
0.278175 0.659908 0.001086
-0.032311 0.241252 -0.239625
-0.161547 -0.758470 0.480103
0.175479 -0.243135 -0.675527
-0.244316 0.007826 0.461557
0.003408 0.980216 -0.317014
0.120792 -0.347441 -0.205001
0.030516 0.488913 -0.223611
0.258897 0.070520 0.091176
-0.290132 0.530028 0.398403
0.222322 -0.199992 0.531412
0.314268 -0.127247 0.285808
0.211031 -0.250288 -0.483178
0.149932 -0.814123 0.125985
-0.322145 -0.137705 0.185683
-0.205055 -0.299484 -0.667961
0.385798 -0.216792 0.602559
-0.222956 -0.022004 0.003984
-0.293172 0.314594 0.082635
0.273363 -0.129924 -0.024835
0.194866 -0.183274 -0.363070
-0.068247 -0.423916 0.664254
-0.118122 0.834728 -0.579655
-0.016858 0.084986 -0.205160
0.028514 0.107102 0.590482
0.235568 -0.077531 -0.009357
-0.157001 -0.818614 0.140058
-0.172048 0.701130 -0.379246
-0.111053 0.710026 -0.659977
0.018054 0.545772 -0.214107
0.307596 -0.250066 0.060244
-0.046388 0.925613 0.228518
-0.308992 -0.360993 0.513268
-0.205718 0.739770 -0.596379
-0.228954 0.087619 0.011153
0.018414 -0.002160 -0.168390
-0.326899 -0.430144 0.286432
0.297069 0.199900 0.306514
-0.470336 -0.287124 0.274679
0.036909 -0.959482 -0.341774
-0.312931 0.516794 0.152182
-0.130845 -0.186314 -0.508728
0.357756 -0.301059 0.516443
0.015106 0.655977 -0.197913
0.170877 -0.383906 -0.086460
0.001641 -0.139484 0.664101
0.149434 0.001973 0.566651
0.049608 0.754908 0.529196
-0.115461 0.831196 -0.588826
-0.385083 -0.350665 0.343176
0.296181 0.637918 0.167255
-0.197797 -0.461753 0.621506
-0.261970 -0.207829 0.444744
0.085006 -0.281952 -0.222837
-0.279844 0.371548 0.026376
0.051215 0.775934 -0.215457
-0.144677 -0.428601 0.646233
0.269525 -0.144856 0.461857
-0.430794 -0.314808 0.309769
-0.059190 -0.294278 -0.047282
-0.088948 0.808393 -0.487878
0.056851 0.202371 -0.229853
-0.304360 -0.102220 0.349202
0.245251 0.286172 -0.054234
-0.087338 -0.379209 0.070313
0.249705 -0.217075 -0.213045
-0.197976 -0.373482 -0.174431
0.173260 -0.423380 0.280739
-0.160429 0.869440 -0.196607
0.194236 0.604909 0.508897
0.211706 -0.190619 -0.312127
0.112419 -0.160933 -0.142232
-0.252421 0.580113 -0.008000
-0.217912 -0.185734 -0.263623
0.403338 -0.326207 0.321471
0.281788 0.735961 0.182964
0.131092 0.502198 -0.197573
0.099779 -0.305135 -0.232501
-0.197669 0.780482 -0.461003
-0.065227 -0.529561 0.675420
0.141027 0.901019 0.036918
-0.085788 0.212859 -0.228782
0.291167 0.273661 0.129133
-0.285824 -0.236374 -0.096973
-0.227585 0.462263 -0.057754
-0.316849 0.438862 0.318726
0.082318 -0.870853 0.395063
-0.055626 -0.053711 -0.142433
0.125288 -0.328422 -0.359955
0.311916 0.493609 0.140504
-0.232803 0.682228 -0.168820
-0.131482 0.883587 -0.133559
-0.196424 -0.260711 0.540304
-0.210558 0.487329 0.512957
0.181345 -0.413343 0.289999
-0.088953 -0.234842 -0.666916
0.282868 0.004693 0.201332
0.202060 -0.208142 -0.473286
-0.089987 0.778265 -0.414409
0.104016 -0.198082 -0.188611
-0.199218 0.795572 -0.576163
0.212059 -0.072327 -0.034886
-0.309843 0.334787 0.289049
0.209311 -0.327643 0.526096
0.000905 -0.970820 0.132448
-0.163837 -0.835286 0.099318
0.135962 -0.382009 -0.029481
0.188159 0.709500 -0.664171
0.193682 0.743925 -0.602853
0.319885 0.487021 0.198205
-0.109709 -0.363731 -0.030764
-0.255820 0.074194 0.440439
0.041174 0.754025 0.532105
-0.166760 0.797718 0.379677
-0.207189 -0.539658 0.444895
-0.202439 0.733320 -0.660518
0.075780 -0.251949 -0.478827
0.294075 0.646170 0.125122
-0.040672 -0.802075 0.588137
-0.111292 -0.753199 0.140620
-0.213331 -0.286652 -0.659530
-0.499072 -0.106569 0.533293
0.107521 -0.416265 0.171679
0.079907 -0.353275 0.007227
-0.152957 -0.757753 0.336938
0.213491 0.530490 -0.092748
-0.002907 0.151631 0.583821
0.020210 -0.989491 -0.120008
-0.095545 -0.263909 -0.389596
0.129804 -0.370434 -0.132242
0.046249 -0.185751 0.654530
-0.322800 0.500478 0.215576
0.159797 -0.174279 -0.342547
-0.062911 0.694816 -0.259285
0.016124 -0.407419 0.139592
0.437250 -0.306996 0.304775
0.145439 -0.383446 -0.034274
0.213847 -0.518365 0.468208
0.097880 -0.208608 -0.481152
-0.284026 0.066463 0.354025
0.296788 0.634573 0.139591
-0.030392 0.204480 -0.233897
-0.043891 0.656181 -0.212689
0.350635 -0.413705 0.159255
0.101582 -0.308689 -0.319777
0.082803 0.486745 -0.215986
-0.272053 -0.360253 0.095949
0.100177 -0.308390 -0.278688
0.131464 -0.805691 0.428446
-0.312376 -0.166380 0.074578
0.223152 -0.364768 0.237891
0.168972 -0.710228 0.334322
-0.153897 -0.179376 -0.507370
-0.167371 0.684559 -0.640947
0.039194 -0.923647 -0.540535
0.131534 -0.117373 -0.115633
0.183042 -0.728577 0.472747
-0.266634 -0.094113 0.449464
0.292305 -0.291565 0.034208
-0.384346 -0.209755 0.609108
0.274221 0.297950 0.048903
0.078088 0.143111 -0.210208
0.313988 -0.263305 0.258306
-0.111548 -0.381399 0.040289
-0.338332 -0.353690 0.434497
0.051100 -0.973445 -0.020523
-0.142834 0.632664 -0.240121
-0.074043 -0.930619 0.015468
-0.083461 0.329288 0.559267
-0.135825 0.565013 0.550681
0.037183 -0.935300 -0.477444
0.316519 0.511411 0.214182
0.197829 -0.247510 -0.668570
0.182681 0.718085 -0.517702
-0.404409 -0.300899 0.401606
-0.239087 -0.389140 0.620545
-0.130738 -0.805864 0.334341
-0.318524 -0.462063 0.165695
0.213270 0.444755 -0.101444
-0.376023 -0.390700 0.273430
0.266749 0.099012 0.110616
-0.268622 -0.299054 0.322914
-0.018397 0.367764 -0.237869
-0.189798 -0.909881 0.025650
-0.148962 0.052079 0.552722
-0.067923 -0.478424 0.194324
0.129472 -0.622745 0.623488
0.258849 0.405784 0.458274
0.170146 -0.302417 -0.541861
0.015090 -0.992736 -0.054904
0.098468 -0.330175 0.641242
0.200945 -0.703744 0.430848
-0.170888 0.879786 -0.098028
0.213490 -0.221923 0.540289
-0.150680 -0.366637 -0.248377
-0.058326 0.761595 -0.212452
-0.224928 -0.374553 -0.072984
0.407043 -0.191188 0.592698
0.021699 -0.958865 -0.541757
-0.061201 -0.928454 0.178228
0.229503 -0.489546 0.344467
0.052958 0.658579 -0.218593
-0.172926 -0.863439 0.067156
0.050492 -0.936714 -0.238834
-0.081542 -0.606042 0.671552
0.301425 -0.085293 0.181166
-0.319345 0.457673 0.301743
0.172232 -0.360848 -0.261269
-0.053150 -0.945274 -0.166361
-0.151084 -0.779746 0.458426
0.311156 0.546317 0.225029
-0.140091 0.095734 0.547814
0.295907 0.221814 0.196876
0.438005 -0.242591 0.419356
-0.108132 0.897139 0.008670
0.187905 -0.009426 0.537379
0.132283 0.275802 0.538094
-0.288090 0.011243 0.239212
0.300700 0.365520 0.086340
-0.135318 -0.354153 -0.654614
-0.304065 0.295942 0.313866
0.142113 0.688869 -0.363306
0.190379 0.760374 -0.678846
