-0.024188 0.385233 -0.204161
-0.000813 0.486457 0.612560
-0.274089 -0.383537 0.440351
-0.218569 0.847247 0.203018
0.197145 -0.878064 0.095049
0.073630 0.811040 -0.579317
0.017385 -0.281638 0.693541
0.283643 0.690263 0.032635
-0.026601 -0.136780 -0.038028
-0.210686 0.837721 0.309709
-0.010463 0.976409 0.016568
0.159242 -0.102442 -0.300568
0.185560 0.807007 -0.683613
-0.375453 -0.285545 0.446645
-0.001806 0.948915 -0.092302
-0.180699 -0.303349 -0.470746
-0.277467 -0.477828 0.431864
-0.136378 -0.201155 -0.455268
0.307753 0.674159 0.046742
-0.145136 0.865285 -0.059331
-0.185930 0.833118 -0.301442
0.188702 0.336527 0.480944
0.045486 0.937185 0.151094
-0.240090 -0.361058 0.566760
-0.312783 -0.063536 0.349705
-0.020527 0.912534 0.341851
-0.343971 -0.165852 0.083689
0.112335 0.675569 -0.637081
0.059020 -0.944797 -0.237944
0.459533 -0.148180 0.531900
0.078151 -0.013559 -0.193658
0.549436 -0.233393 0.446635
0.023623 0.629804 -0.179272
0.097379 -0.130484 -0.075844
0.216372 0.653221 0.520344
0.211599 0.504374 0.522992
-0.282016 -0.244057 -0.069302
-0.103019 -0.864893 0.370307
-0.320379 0.459142 0.203305
-0.208990 -0.247140 -0.288162
0.122102 -0.191663 -0.225990
-0.010523 0.337528 -0.221243
-0.080187 -0.575606 0.230377
0.068904 0.157177 -0.226243
0.321259 -0.373935 0.360790
0.365659 -0.286677 0.509615
0.206537 -0.412754 -0.672760
-0.100078 0.875200 -0.116277
-0.049418 -0.294239 0.701003
-0.148686 -0.432695 -0.168522
0.198431 0.848388 -0.133771
0.289202 0.591214 0.277085
0.085279 0.898268 -0.000095
-0.072346 -0.908609 0.131146
-0.260853 -0.274959 -0.675263
-0.412955 -0.289647 0.373318
-0.324289 0.618979 0.355844
-0.102848 -0.426498 0.656206
-0.163829 0.362777 -0.178662
0.071086 0.604636 -0.241252
0.108896 0.655551 0.536802
0.092968 -0.430693 0.248345
-0.400098 -0.174748 0.563280
-0.203424 -0.335628 0.136410
0.113055 0.730533 -0.341452
-0.370380 -0.319218 0.498119
0.001504 -0.832604 0.598388
0.223119 -0.248774 -0.658635
-0.059691 0.893154 0.259890
-0.284536 -0.306377 0.160324
0.166650 -0.326954 0.580993
0.384665 -0.412298 0.481934
-0.121747 -0.215295 -0.372703
0.019963 1.032960 -0.061214
0.232968 0.521373 -0.062119
0.270421 -0.305562 -0.132082
0.116636 0.697402 -0.423847
-0.170517 0.132011 0.544345
0.296884 -0.437988 0.185161
-0.259224 -0.003737 0.055397
-0.256458 0.699389 -0.044563
-0.041981 -0.984900 0.044746
-0.091385 0.914322 -0.046142
-0.099209 -0.169059 0.591504
-0.193967 -0.514880 0.465148
0.118820 0.660444 -0.652762
-0.114198 0.846213 -0.546641
0.154386 -0.419574 0.024197
0.229039 -0.278757 0.495374
0.303256 -0.469640 0.285305
-0.257096 -0.051909 0.022886
-0.141302 -0.680617 0.227674
-0.296938 0.269899 0.233507
0.067495 -0.203152 -0.384536
-0.271897 0.694535 -0.051268
0.034270 -0.991437 0.089095
-0.196880 0.846465 -0.007962
-0.543777 -0.145351 0.461250
0.244220 0.305533 0.024829
-0.155509 0.728268 -0.713583
-0.171812 -0.034831 0.569579
0.124680 -0.667741 0.657954
0.210201 -0.508812 0.407144
0.250670 0.640032 -0.014726
-0.364868 0.514273 0.257385
0.135046 0.924818 -0.492844
-0.326569 0.594183 0.390945
0.103529 -0.154546 -0.538501
-0.236945 0.011922 0.494232
-0.017916 -0.923454 -0.062664
0.460378 -0.225033 0.551647
-0.212716 -0.489601 0.394580
-0.159524 0.213041 -0.183996
0.261617 -0.326122 0.602219
0.226906 -0.395476 -0.095581
0.050180 -0.276834 -0.372148
0.207097 -0.213935 -0.513889
0.209990 0.774716 -0.389146
0.063104 0.890428 0.362356
0.166471 0.059329 0.526861
0.051816 -0.920063 0.245385
-0.021468 0.199272 -0.270542
-0.139590 -0.702850 0.417175
0.274854 0.828899 0.181928
0.101472 0.633742 0.515868
-0.157040 0.627247 0.509651
0.136434 0.897319 -0.438995
-0.209727 0.246103 -0.004302
-0.440918 -0.278992 0.385006
0.043839 0.911780 0.253946
-0.426486 -0.188868 0.560718
-0.126208 -0.216757 -0.222141
-0.243467 0.689477 0.435435
0.051068 0.113039 0.547372
0.237261 0.240359 0.065389
0.071700 0.857565 -0.053707
-0.330556 0.589260 0.180456
0.349374 -0.274160 0.159035
-0.379954 -0.388392 0.178774
0.098057 0.834515 -0.409595
-0.288973 -0.403616 0.327750
-0.025413 -0.164224 0.676829
-0.281324 0.392201 0.346133
0.221024 -0.310127 -0.331659
0.238421 0.145601 -0.177215
-0.138846 -0.670547 0.605740
0.527293 -0.149455 0.414232
-0.337952 0.590445 0.200810
-0.152854 -0.209417 -0.566398
-0.132479 -0.355605 -0.252572
-0.084880 0.669799 0.574867
-0.300050 0.640680 -0.023713
-0.152139 -0.377487 0.037032
0.001428 0.970471 -0.340563
0.031570 0.923831 0.156508
-0.186304 -0.183395 -0.534560
0.298863 -0.263841 0.198643
-0.162807 0.170640 -0.158659
-0.202733 0.718054 0.379131
0.241262 -0.438442 0.356495
0.219562 -0.210901 0.541805
0.180501 0.704774 -0.252504
-0.215191 -0.322205 -0.309358
0.153905 -0.807029 0.363460
0.084928 0.665977 -0.285189
0.332640 -0.308235 0.540657
0.316870 -0.234086 0.096513
0.234344 -0.246426 -0.227296
0.140145 -0.836450 0.401566
0.022070 0.823660 -0.561585
0.237184 -0.149501 -0.133636
-0.251778 0.740723 0.399423
0.282423 0.079031 0.270999
-0.213856 -0.305201 -0.424830
-0.071177 -0.307608 0.615030
-0.197498 0.879634 0.078037
-0.063217 -0.230653 -0.071937
-0.215603 0.161638 -0.170537
0.045707 0.880073 0.379341
0.204131 -0.576007 0.573669
-0.041598 -0.229203 -0.273009
0.326146 -0.217614 0.311896
-0.182474 0.715245 -0.454933
-0.063263 -0.409580 0.003721
0.231343 -0.304672 -0.077897
0.080244 -0.675685 0.637352
-0.209037 -0.003760 0.010557
-0.237233 -0.008304 0.090751
-0.231470 0.617714 0.490543
-0.043387 -0.435727 0.173090
0.124088 0.747556 -0.588298
-0.233516 0.787165 0.232248
0.428997 -0.209994 0.401846
0.056287 -0.958188 0.110373
-0.088612 -0.298789 -0.050209
-0.117687 0.154354 0.571980
0.114686 -0.409652 -0.086390
0.157296 0.768594 -0.689385
-0.173645 0.882842 -0.575618
-0.097027 0.090209 0.570834
0.281707 -0.059972 0.435505
0.212939 0.805222 -0.237780
0.280835 0.005380 0.098074
-0.234777 -0.250820 -0.276048
0.153076 0.744284 -0.519376
-0.060676 0.722604 -0.310671
0.181973 -0.513025 0.377172
-0.184963 0.724402 -0.377268
0.062125 -0.895336 0.323583
-0.523284 -0.075373 0.507036
0.088571 -0.248567 -0.520709
-0.073831 -0.867817 0.078778
-0.248576 0.773468 0.254162
0.194162 0.345721 -0.078950
-0.151213 -0.389049 -0.263516
-0.280389 0.688002 -0.110778
0.218277 0.091960 -0.120657
-0.179218 0.909487 0.132701
0.198081 0.506209 -0.106117
0.048900 0.220172 -0.218047
-0.239374 -0.210472 0.416039
-0.240207 -0.435368 0.403307
0.136201 0.685299 0.505953
0.049831 -0.894872 0.406374
0.034509 -0.951249 -0.171655
0.179295 0.866538 -0.347649
-0.411380 -0.227178 0.610162
0.179546 0.272458 -0.192328
0.016702 -0.018696 0.663037
0.362760 -0.220712 0.562404
-0.291267 0.147067 0.232822
0.213740 -0.009410 -0.025291
0.266141 -0.056272 0.399236
0.190229 0.837273 0.145146
-0.312990 0.518917 0.046553
0.050801 -0.503634 0.221298
-0.120648 -0.425232 -0.249852
0.131653 -0.862006 0.316589
0.127955 -0.104652 0.597435
0.058726 0.450363 -0.215454
0.269362 -0.369261 0.439348
0.289834 0.241737 0.075957
0.118402 -0.774844 0.556824
0.085406 -0.443868 0.672656
-0.148718 -0.836639 0.362300
0.533537 -0.104089 0.417563
0.200082 -0.401438 0.402485
0.155119 0.076881 0.567908
-0.234948 -0.454321 0.443531
0.140799 -0.436426 0.227423
-0.319846 0.726902 0.113618
0.232889 -0.506350 0.436957
-0.278947 0.266859 0.087514
-0.269817 0.004340 0.398291
-0.305501 0.312559 0.060458
0.252477 -0.451093 0.414705
0.307075 0.420876 0.423538
-0.226068 -0.041220 0.465207
-0.094204 -0.754398 0.678744
-0.083571 -0.348113 0.632579
-0.233388 -0.037268 -0.020731
0.120383 -0.065465 0.592880
0.258156 0.169293 -0.029675
-0.252620 0.147612 0.063760
-0.140382 -0.098622 0.581163
0.281081 0.753103 0.028244
-0.298293 0.485491 0.011389
0.274834 0.169049 0.056068
0.229437 0.203658 0.108108
-0.215585 0.626358 0.464877
0.171616 0.848930 -0.499606
0.022043 0.171507 -0.238314
-0.193398 -0.170566 -0.297948
-0.250943 -0.448462 0.505515
-0.100911 -0.127384 -0.151806
-0.438111 -0.276592 0.490811
0.097437 -0.059797 -0.112924
-0.012528 -0.850212 -0.415756
0.326770 0.616144 0.305913
-0.124857 -0.189683 -0.245477
-0.041210 -0.266369 -0.589233
-0.223925 -0.491321 0.607024
-0.222888 0.147782 -0.031316
-0.137410 0.755179 0.399418
-0.014916 -1.012640 0.102650
0.153639 -0.347151 -0.660420
-0.065945 -0.335802 -0.245601
0.293841 0.419677 0.085105
-0.329486 -0.399844 0.371782
-0.015700 0.597886 0.582255
0.044405 -0.985329 0.000187
0.290686 -0.259045 0.091765
0.197628 0.112061 0.471438
-0.153799 -0.681713 0.522203
-0.064176 0.833786 0.396986
0.258732 0.552631 -0.034765
0.071696 -0.200328 -0.063661
-0.213402 -0.341957 0.628842
0.089857 0.837571 -0.639642
-0.002270 0.845941 -0.029275
0.324144 -0.436378 0.229924
-0.319573 0.256419 0.205723
-0.241206 -0.373723 -0.134224
0.007418 -0.412070 0.164864
0.308325 0.606187 0.385363
-0.250736 0.001070 0.174902
0.170320 -0.384533 -0.656468
-0.114484 0.825736 -0.136886
0.093502 0.120260 0.582915
0.321133 -0.106319 0.305284
-0.111152 -0.789831 0.368688
0.289842 -0.086573 0.228828
0.234427 0.697724 -0.300700
-0.200828 -0.392981 -0.036061
-0.108584 0.854362 0.302330
0.072400 -0.045419 0.626896
-0.047083 -0.409267 0.140107
0.230611 0.707852 -0.075344
-0.208241 0.708578 -0.614281
0.061158 0.778224 -0.489438
0.459664 -0.231699 0.386711
0.022446 -0.732389 0.674540
0.155816 -0.584564 0.554374
-0.485434 -0.152540 0.534984
0.198659 0.801614 -0.373427
-0.063294 -0.248939 -0.644514
-0.275469 0.188034 0.258627
-0.131306 -0.581417 0.346483
0.115029 0.678995 -0.495129
0.462970 -0.135845 0.508673
-0.076990 0.859198 -0.500921
-0.171435 -0.133023 -0.122252
0.141974 -0.538310 0.535792
0.149737 0.508939 0.528715
-0.319268 -0.277759 0.100435
-0.248028 0.205383 0.399645
0.208858 0.864161 0.108299
0.106984 -0.810790 0.517125
0.073468 0.582383 -0.201736
0.197391 -0.067184 0.540061
0.212084 -0.428504 0.490515
0.169558 0.587889 -0.271709
0.175312 -0.342272 -0.380802
-0.218958 0.671507 -0.573520
-0.308653 -0.553630 0.162870
0.157659 -0.200702 -0.390457
-0.234158 -0.412143 0.017012
0.266943 -0.206971 -0.029895
0.314778 0.348312 0.424424
0.203523 0.376383 -0.101459
0.181886 0.269012 -0.148071
-0.274509 0.861995 -0.013703
-0.141143 -0.618317 0.541474
0.113643 -0.239582 -0.119661
0.296153 0.519094 0.104634
-0.292546 -0.107605 0.173232
-0.183796 -0.198024 0.534517
0.290841 -0.020807 0.128744
0.294007 -0.086887 0.367622
0.257569 -0.430070 0.433661
0.073329 0.383087 -0.213523
0.092500 -0.651017 0.688785
0.248095 0.049064 0.117167
-0.252445 0.747608 -0.625489
-0.264863 0.228469 -0.027431
-0.016644 -0.239112 0.671973
-0.104978 0.619050 0.548513
-0.211219 0.535783 -0.012587
-0.112700 0.718710 -0.522971
0.017443 -0.748169 0.607696
0.256612 0.048257 0.122715
0.064637 0.267984 0.548882
0.362184 -0.455348 0.239969
-0.310189 -0.242818 0.144968
0.193717 -0.191040 -0.344708
0.098343 -0.329402 -0.458153
0.142419 -0.297304 -0.701052
0.297149 -0.095482 0.352120
0.402852 -0.375269 0.193914
0.138812 -0.216302 -0.099700
0.295633 0.698977 -0.066997
0.085220 -0.330435 -0.320891
0.363110 -0.161448 0.172539
-0.201987 0.695149 -0.496431
0.279783 0.334816 0.357685
0.138281 -0.341058 0.568603
-0.251200 0.477095 -0.092221
0.017665 0.930017 0.343872
0.306213 -0.097292 0.187068
-0.434379 -0.213724 0.430220
-0.444703 -0.267870 0.417383
0.194190 0.853271 0.205693
-0.181016 -0.888798 0.087727
0.035161 -0.932602 -0.564704
0.287995 0.510418 0.073235
-0.499713 -0.120339 0.544562
0.417511 -0.208496 0.429885
0.280521 0.095295 0.146315
-0.257406 0.393549 0.298198
0.103731 -0.328919 -0.021913
-0.288381 0.262755 0.338537
-0.058252 -0.338642 -0.630889
0.473978 -0.160049 0.446024
-0.275321 0.697102 0.045828
0.188306 -0.621274 0.363737
-0.196770 -0.430346 0.661649
0.260913 0.801950 -0.345572
-0.111342 -0.650592 0.547265
0.003684 0.308298 -0.287616
0.013219 0.984132 -0.096074
0.103278 -0.798785 0.542142
0.108310 0.850335 -0.266323
0.194544 0.726934 -0.463127
-0.243581 -0.024861 0.482046
0.462401 -0.165862 0.519320
-0.256937 0.745515 -0.115271
-0.235569 0.616480 0.442995
-0.476644 -0.290559 0.369670
-0.284112 -0.524397 0.127050
0.263253 -0.508350 0.259497
0.082974 -0.102609 -0.096719
-0.144370 0.889544 0.123517
-0.086975 -0.748993 0.599882
-0.035074 0.318479 0.581201
0.191527 0.849869 0.151916
0.192242 0.859430 -0.576926
-0.290789 0.376470 0.440693
-0.204152 -0.055313 0.528558
-0.189238 -0.232085 -0.667132
-0.260410 0.085054 0.435822
-0.399891 -0.355920 0.321999
0.110929 -0.650677 0.194056
0.048923 -0.980223 -0.059905
0.211670 0.242455 -0.116947
-0.033204 0.904968 0.235163
-0.284596 0.384357 0.387925
0.423223 -0.244719 0.455311
0.156100 0.816580 0.333742
0.157125 0.345571 -0.202450
0.086454 -0.371774 0.159154
-0.301684 -0.171935 -0.076953
-0.301255 -0.306197 0.091757
0.224164 0.782355 -0.234948
-0.080415 0.629392 -0.242297
-0.484523 -0.275073 0.282957
0.087819 -0.895604 0.106079
-0.053482 0.803065 0.476243
0.275256 0.113423 0.272361
-0.233242 0.781198 -0.278446
0.151559 0.550761 0.521404
0.038492 -0.987020 -0.050199
0.105062 -0.508411 0.161696
-0.204744 0.748576 -0.242751
-0.298445 -0.305766 0.662035
-0.234151 0.758129 0.118854
0.325590 -0.394258 0.467262
-0.561181 -0.145536 0.422156
0.141147 0.855819 -0.469276
0.286981 -0.059259 0.410501
0.385708 -0.473660 0.169332
0.023217 -0.855860 -0.029267
0.013442 -0.498531 0.199715
-0.037047 -0.942334 -0.541427
-0.315747 -0.489541 0.110604
-0.246153 -0.439023 0.279555
0.210197 -0.379775 0.107200
-0.331474 -0.237447 -0.042252
-0.303467 0.756903 0.120465
-0.281253 0.478944 0.077793
-0.119264 0.849160 -0.156758
0.185459 -0.433160 0.328326
0.231845 0.508976 0.425885
-0.307115 0.439110 0.069579
-0.153773 -0.201260 -0.661317
0.230335 -0.744907 0.444777
0.374568 -0.249820 0.582036
0.242208 -0.384598 0.659320
0.299910 0.352165 -0.074355
-0.073634 -0.769335 0.127209
0.185574 0.290906 -0.200378
0.218658 -0.353994 -0.236457
-0.228550 0.320720 0.402531
0.238019 -0.314193 0.353670
-0.048148 0.211422 0.558914
0.209915 -0.373158 -0.048863
0.283570 0.255929 0.097467
-0.128912 -0.485265 0.232334
0.178885 -0.163939 -0.265618
-0.109114 -0.803112 0.476437
-0.055918 0.055858 0.540792
-0.198988 0.045185 0.502429
0.060214 -0.262236 -0.104998
0.183521 0.390444 0.488240
-0.159806 0.515381 -0.196028
0.378246 -0.183966 0.565667
-0.019050 -0.974645 -0.035817
0.303139 0.548258 0.356070
-0.116368 0.048732 -0.162440
-0.393784 -0.379127 0.234716
-0.035164 -0.168444 0.665726
0.057455 -0.371905 0.103569
-0.486757 -0.164602 0.447961
0.096099 0.624679 -0.259655
0.113730 0.619842 0.539537
0.187524 -0.389988 0.326258
-0.092579 -0.838261 0.390653
0.087995 -0.327492 -0.116663
-0.221023 -0.332776 0.635299
-0.166225 -0.816624 0.137036
0.066928 -0.945494 0.140145
0.001558 1.003630 0.013810
-0.275775 -0.444106 0.294899
-0.084024 0.761014 -0.256775
0.077673 -0.905829 0.026407
-0.243383 0.364093 0.530807
-0.007298 0.866403 -0.092177
-0.323911 0.487439 0.238688
0.324462 0.505212 0.071700
0.123954 -0.337775 0.608794
-0.346346 -0.249398 0.619090
-0.008796 0.795468 0.542939
-0.348862 -0.146644 0.248248
-0.369310 -0.333843 0.385102
-0.326478 -0.293498 0.556847
0.357891 -0.204526 0.666090
-0.177592 0.592838 -0.181577
-0.091340 -0.305259 0.638116
0.085219 0.767433 -0.191093
0.156443 -0.453386 0.446764
-0.145893 -0.813202 0.455632
0.031757 0.959666 -0.077890
-0.183140 -0.394562 -0.129150
-0.258172 -0.136489 0.441919
-0.273374 -0.252259 -0.219109
0.126966 0.862361 -0.226010
0.082380 -0.225641 -0.202460
0.198131 0.730865 0.276884
0.227402 0.683141 -0.103424
-0.055915 -1.013510 -0.049578
-0.069171 -0.177238 0.638476
-0.231021 -0.374739 0.243463
-0.000116 0.593214 0.597671
-0.088685 -0.912856 -0.138899
0.354736 -0.354930 0.463691
0.115760 -0.342454 -0.527986
0.226529 -0.306768 -0.326116
-0.213302 0.071894 0.121715
-0.088680 -0.540771 0.669180
-0.068519 0.343345 0.544454
0.012279 -0.889936 -0.495163
-0.225396 0.793437 -0.131964
-0.285532 0.226405 0.106415
-0.210124 0.597525 -0.080901
0.274581 0.772488 -0.022767
0.130287 0.878425 0.372310
0.054963 0.897348 0.236879
0.178660 0.697621 -0.377489
-0.247573 0.451188 -0.080695
0.064436 -0.912265 -0.008209
-0.100562 0.243106 0.564512
0.184794 -0.142198 0.533060
-0.191249 -0.517688 0.460067
0.091105 0.697786 -0.623506
0.367351 0.236929 0.244557
0.151101 -0.838432 0.033194
0.010432 -0.226639 0.654306
0.051583 -0.971045 -0.138893
0.250731 -0.386001 0.446308
-0.317119 0.321013 0.306581
0.107017 0.649238 -0.307729
-0.118647 -0.694766 0.362628
-0.157870 0.876662 -0.226880
-0.094681 -0.599295 0.288165
0.156809 0.930877 -0.085256
0.251405 0.281682 0.443864
0.182240 -0.569299 0.355597
0.020135 -0.990121 0.185289
0.254110 0.775389 -0.548631
-0.159429 -0.188636 0.587082
-0.184929 0.708592 -0.575639
0.219540 -0.346114 -0.159000
0.128433 -0.289169 -0.598773
-0.229091 -0.384089 0.232678
0.161873 -0.200477 -0.539038
0.305986 -0.278809 -0.015803
-0.188639 0.904226 -0.019559
0.239194 0.349927 -0.063294
0.199160 -0.416229 0.637741
0.016863 0.480376 0.584089
0.174492 0.695004 -0.671884
0.012822 -0.996527 -0.443724
0.070053 -0.963439 -0.467821
-0.066019 -0.340077 0.083582
0.039011 -0.329367 -0.639129
-0.298513 0.557109 0.366757
0.199826 -0.313216 -0.582696
-0.184608 -0.563221 0.503814
-0.358310 -0.367027 0.256509
-0.350529 -0.250009 0.512063
0.101171 0.830066 -0.540254
-0.162256 -0.159034 -0.358165
0.051528 0.023147 0.608953
0.397400 -0.362608 0.207358
-0.040326 0.652254 0.541140
0.178901 0.846478 -0.621391
0.231189 0.008726 0.057041
0.264713 0.298994 0.155307
0.089361 -0.228241 -0.571376
-0.318828 -0.424894 0.327604
-0.276836 0.200598 0.055863
-0.034686 -1.015300 -0.062557
-0.175745 0.024554 0.544797
0.226299 -0.410363 -0.170376
0.261184 -0.440560 0.425232
-0.030286 -0.272584 -0.022005
-0.264252 -0.487544 0.160716
0.118115 -0.587781 0.194430
0.166711 0.890891 -0.024340
0.019587 -0.899476 -0.140050
0.247426 0.352222 0.019843
0.415876 -0.093432 0.522829
-0.265322 0.136959 0.403522
-0.082832 -0.876497 0.241634
-0.105264 0.518825 0.561379
0.172519 0.397937 -0.172777
-0.066441 -0.008575 -0.147832
0.004798 0.747773 -0.175024
-0.042073 0.835757 -0.059883
-0.186618 -0.375515 -0.389436
0.277339 -0.357542 -0.067194
0.356897 -0.259412 0.665444
-0.327515 0.370951 0.138843
-0.147643 -0.831578 0.111388
-0.283570 -0.159135 0.467615
0.130012 -0.633685 0.290119
-0.274004 -0.297641 0.277071
0.026973 -0.977417 -0.121093
-0.362294 -0.317611 0.397607
-0.296562 0.353822 0.197507
0.292169 0.617271 0.174802
0.132939 0.849115 -0.236464
0.044332 -0.502380 0.199434
0.412632 -0.224861 0.498176
0.286948 0.408403 0.069755
0.006742 -0.962260 0.258713
0.297757 0.647202 0.106749
0.111333 -0.638153 0.275567
-0.335903 -0.201784 0.200181
-0.089219 -0.107563 0.650559
0.102608 0.757065 -0.647327
-0.210938 -0.255530 0.520198
-0.281518 0.553783 0.395040
-0.251503 -0.171718 0.448010
0.025459 -0.990096 0.170834
0.280589 0.665520 -0.053878
-0.173305 0.148467 0.510455
0.306401 -0.497258 0.153102
-0.275487 -0.335060 -0.164035
-0.032556 -0.923851 -0.092574
0.140878 -0.151084 -0.386481
0.128153 -0.225181 -0.300233
0.520443 -0.102040 0.458833
-0.254053 0.696052 -0.340445
0.126970 -0.226626 0.622408
-0.232965 -0.011341 0.470497
0.305300 0.427494 0.051660
-0.164172 -0.800391 0.188289
-0.050216 0.049348 0.583562
-0.139574 -0.291139 0.585842
0.290242 0.560361 0.269246
0.049013 -0.120051 0.649890
0.196926 -0.357666 -0.200004
0.417669 -0.332739 0.308730
0.385301 -0.326253 0.232556
0.241176 0.205533 0.497379
0.218620 0.595788 -0.040479
-0.314923 0.348456 0.121302
0.244099 -0.498242 0.325010
0.211369 0.293207 0.476250
-0.313309 0.306402 0.266923
0.399429 -0.356297 0.356357
-0.072915 -0.598349 0.686438
-0.145667 -0.397472 0.207701
0.017625 -0.811707 0.521281
-0.176864 0.253256 -0.157627
-0.210145 0.805993 -0.547491
-0.082344 -0.511914 0.239486
0.096227 -0.937588 0.187441
-0.357571 -0.217624 0.614558
-0.255697 -0.308025 0.249391
-0.193370 -0.167607 -0.299477
-0.009099 0.352213 -0.250475
-0.102615 -0.346664 -0.087715
-0.080451 -0.220055 0.613832
0.113099 -0.197387 -0.230678
-0.400554 -0.383189 0.183707
-0.034257 -0.690542 0.170059
-0.217263 -0.465146 0.490117
0.183933 -0.269719 -0.448931
0.308807 0.094455 0.278045
0.282784 0.588022 0.003333
0.584006 -0.148080 0.420225
-0.096487 -0.325505 0.616768
0.060667 0.916110 0.140139
-0.139036 0.829039 0.344956
-0.132016 0.896214 0.130802
0.193991 -0.589622 0.309796
-0.135109 -0.312562 -0.586113
0.261280 -0.406894 0.489285
0.235335 0.904687 0.136806
0.316529 -0.165469 0.096891
0.068027 -0.944684 0.224133
0.283115 -0.138749 0.199197
0.041124 0.985690 0.211008
-0.241073 -0.522864 0.322673
0.241791 0.335243 0.041785
-0.231118 0.699891 0.452403
-0.093989 0.733183 -0.327608
-0.194974 0.424750 -0.159351
-0.098429 -0.302049 -0.485439
-0.054452 -0.916465 -0.370554
0.226272 -0.271862 -0.324914
0.231202 0.377581 -0.080655
-0.296385 -0.091382 0.313010
0.460179 -0.175149 0.394294
0.017558 0.958936 -0.157739
0.284090 0.140843 0.054143
-0.048989 -0.924660 -0.572610
-0.116798 -0.790440 0.511719
0.417937 -0.256773 0.505173
0.150369 0.111952 0.554703
0.299564 -0.086855 0.202236
-0.074889 0.879902 0.051668
0.074441 -0.256126 -0.471898
0.054711 -0.988343 -0.375716
0.410055 -0.187760 0.501544
-0.052705 -0.579149 0.694306
0.127131 0.683137 -0.366257
-0.107177 -0.687634 0.156390
-0.013821 0.420047 -0.202792
-0.354896 -0.439497 0.136473
0.034705 0.154825 0.591468
0.442371 -0.297633 0.316724
0.025600 0.688730 0.497403
-0.121246 0.755812 0.481173
-0.281232 0.204193 -0.033050
0.268022 0.582280 -0.006647
0.202058 -0.327390 -0.400385
-0.267062 0.253807 -0.014373
0.187803 -0.813004 0.199364
-0.037160 0.749509 -0.217834
-0.011987 -0.976739 0.013073
0.255332 0.118994 0.076554
-0.069475 -0.539655 0.652984
-0.145466 -0.255521 0.610684
-0.019269 -0.633671 0.171419
-0.117139 0.669555 -0.293726
-0.231407 0.441769 0.471472
0.179576 -0.374957 -0.403623
-0.026712 0.040353 0.594779
-0.112223 -0.607925 0.193455
0.266306 -0.393276 0.488968
-0.079443 -0.430010 0.171554
0.010372 1.024680 -0.106969
-0.097012 0.827045 -0.518161
-0.372666 -0.291317 0.493239
-0.261724 0.583945 -0.036697
-0.118943 -0.486285 0.201278
0.042136 0.362312 -0.174761
-0.258759 0.696602 -0.076451
0.000214 0.158264 -0.185526
-0.108900 -0.109111 -0.135860
0.294962 0.686391 0.154904
0.103272 -0.037064 0.661883
0.225561 0.843355 -0.083482
0.457749 -0.241419 0.291619
-0.235404 0.630735 -0.118304
-0.298664 0.209112 0.315003
0.007044 0.209753 -0.226675
0.281538 -0.045576 0.255476
-0.257979 0.291887 -0.036378
0.279377 -0.331291 -0.119400
-0.038381 0.922688 0.213313
-0.128590 -0.681520 0.181613
0.175068 0.551897 -0.113254
0.091539 0.874026 0.126843
-0.030847 0.855885 -0.110654
-0.316527 -0.083577 0.187999
-0.050034 -0.302159 0.064585
-0.019907 -0.965185 0.230530
0.190366 -0.393760 0.180559
0.115931 0.526745 0.525676
-0.070509 0.802514 -0.416958
-0.125001 -0.353658 -0.654379
0.038676 0.044458 0.582420
-0.073132 0.741521 -0.528286
0.075332 -0.630685 0.121413
-0.110495 -0.373247 0.626110
0.039079 0.680060 -0.230809
-0.081180 -0.607296 0.163282
-0.257203 0.268076 0.028529
-0.269995 -0.407084 0.552280
-0.105355 0.898487 0.149238
0.299583 -0.452232 0.350625
0.397687 -0.196625 0.565888
0.326861 -0.118596 0.323239
0.019113 0.619522 0.544096
0.454832 -0.163507 0.583122
-0.061927 -0.374901 -0.617327
0.171539 -0.519666 0.654103
0.354592 -0.269174 0.413665
-0.000071 -0.763733 0.119565
0.283053 0.300840 0.068706
-0.114190 0.093793 -0.187469
-0.233498 -0.378278 0.511251
-0.232212 -0.342852 0.487767
0.100415 0.772728 -0.424745
0.198739 -0.949537 0.022924
-0.163322 -0.396285 0.375366
-0.087386 -0.397813 0.666529
-0.029916 -0.989771 -0.521588
-0.068533 0.535131 -0.213358
-0.117471 0.472793 -0.227364
0.099773 -0.669746 0.575848
-0.128228 -0.499475 0.308337
0.074290 0.874910 0.346532
-0.135560 -0.880408 0.163419
-0.215383 -0.518206 0.547622
-0.261552 0.741728 0.332670
0.526165 -0.189243 0.433557
-0.048973 -0.760504 0.666331
-0.283542 -0.304349 0.205585
0.295754 -0.171804 0.037022
-0.542060 -0.198702 0.308597
-0.243333 0.385343 0.057140
-0.336656 0.428209 0.256852
-0.120998 0.448698 0.571402
0.159281 0.901826 0.116165
0.136528 -0.574323 0.240305
-0.271535 -0.236462 0.382514
0.252415 -0.400774 0.605161
-0.323280 0.096317 0.453304
-0.110084 -0.356454 0.637517
-0.236366 -0.268209 -0.280661
-0.329545 0.264499 0.125199
0.051679 -0.919409 -0.057419
0.455377 -0.265938 0.396028
0.158240 0.107231 0.514052
0.138409 -0.569763 0.541711
0.226551 -0.240072 -0.620059
0.179761 -0.344780 0.440071
-0.035376 -0.949701 -0.109135
0.256792 -0.393275 -0.027376
-0.002589 -0.465830 0.182086
-0.005106 -1.040200 -0.101899
-0.098729 -0.365112 -0.139138
0.331972 -0.175558 0.217422
0.029141 0.979400 -0.119903
-0.122249 0.641517 0.560800
-0.125773 0.899955 -0.085133
-0.229156 -0.057229 -0.035357
0.192901 -0.416868 0.627085
-0.264380 0.404498 0.456203
-0.192826 0.795668 0.393616
-0.070918 -0.783523 0.528252
0.069702 -0.272452 0.003170
0.148787 0.519777 -0.097321
-0.241685 -0.430708 0.656431
0.340269 0.410939 0.253560
0.255484 0.246589 0.422689
-0.307970 -0.378841 0.482021
-0.248386 -0.418336 0.644005
-0.445886 -0.317978 0.292006
0.177397 0.892471 -0.120180
-0.251013 -0.486615 0.494951
-0.141381 0.692863 -0.430438
0.494458 -0.238185 0.310512
0.177531 -0.297379 -0.333345
-0.144896 -0.741259 0.258531
0.333913 0.347230 0.136098
-0.443164 -0.374601 0.188647
0.123845 0.846995 -0.279563
-0.301455 -0.189731 -0.062067
-0.284007 0.654131 0.250659
0.271613 0.181114 0.211767
0.173680 0.451919 -0.227972
-0.153670 0.814327 0.329260
-0.129652 -0.417755 0.139138
-0.255343 0.147529 0.451635
-0.055408 -0.941757 -0.394765
-0.284306 -0.186428 0.459758
0.118259 0.859765 0.280767
0.118658 -0.184464 0.547504
-0.314732 -0.271856 0.146440
0.252819 -0.236377 0.376973
0.043720 0.748003 -0.258747
0.131939 0.884739 0.379721
-0.131675 -0.866157 0.190565
-0.482999 -0.152974 0.473278
0.007466 -0.638437 0.177520
0.000387 -0.850515 0.048275
0.088220 0.846119 0.267163
0.289868 -0.385080 0.437781
0.101742 0.073869 -0.167531
-0.305981 -0.052834 0.251286
-0.389807 -0.359385 0.312292
-0.172141 -0.210686 -0.278515
-0.170649 0.874164 -0.155332
0.015646 -0.954008 0.184928
0.219725 -0.200461 -0.351657
-0.162967 0.805369 -0.418616
0.165987 -0.305727 0.510700
-0.073018 0.787894 0.492069
-0.282475 0.681185 0.253575
-0.042353 -0.220442 -0.219473
0.075939 -0.969035 -0.074965
0.288288 0.294207 0.057112
-0.336902 -0.154614 0.097895
-0.254409 -0.013315 0.265828
0.225307 -0.368080 0.220019
0.030759 -0.713552 0.176229
0.240966 0.363029 -0.035433
0.304118 -0.456727 0.202529
0.066655 0.825852 -0.235174
0.236565 -0.452256 0.361353
-0.062891 0.235082 0.520239
0.058755 -0.464545 0.166157
-0.156934 0.255612 -0.174224
0.123092 0.862322 0.255084
-0.311517 -0.287704 0.516407
-0.115775 0.716379 -0.568291
-0.310257 -0.186449 -0.069246
-0.018233 -0.984475 -0.601171
-0.023253 0.892324 0.370776
-0.466128 -0.205100 0.360198
-0.122980 -0.206465 -0.419639
0.146048 0.617731 -0.242349
-0.027278 -0.323424 0.670266
0.140192 0.677976 -0.285302
0.031996 0.621759 -0.227436
0.159133 0.924058 -0.022369
0.267678 -0.336977 0.489667
0.162120 -0.480156 0.660787
-0.195497 0.820957 -0.673622
0.323122 -0.199036 0.250321
-0.262404 0.699725 -0.042326
-0.132453 -0.799023 0.116473
0.055342 -0.205766 -0.496169
-0.101231 -0.782547 0.364184
0.321417 -0.500449 0.137026
0.180389 -0.263467 -0.460556
0.110269 -0.566770 0.294315
0.142486 0.568474 0.513160
0.207371 0.582236 0.549813
0.291582 0.539447 0.385984
0.144069 -0.438095 0.614509
0.241841 0.756933 0.214320
0.285138 0.307854 0.339927
0.025011 0.969405 0.218774
-0.044872 -0.964361 -0.624151
0.003577 -0.968127 0.118974
0.430761 -0.217915 0.559598
-0.363212 -0.293202 0.612762
-0.274923 0.340443 0.012556
-0.205306 0.243804 0.473243
0.266929 0.069457 0.035369
-0.218468 0.059588 -0.007567
-0.211076 0.736017 0.395525
0.155165 -0.314076 -0.576373
-0.025026 -0.881114 0.442200
0.239645 -0.488137 0.526924
-0.043667 -0.916963 -0.228635
-0.218004 -0.329110 -0.684039
-0.099823 0.709671 -0.656932
-0.247441 -0.410486 0.611847
-0.255504 0.041344 0.478083
-0.015458 -0.410057 0.184102
-0.054563 0.645052 -0.206377
-0.083133 -0.299420 -0.403443
0.184032 -0.199146 -0.620695
-0.283836 -0.268048 0.015578
0.130280 -0.020202 -0.115037
0.416055 -0.261236 0.476899
-0.272057 0.530470 0.432219
0.213344 0.510577 -0.126672
-0.099236 -0.099234 -0.122511
0.022891 0.936787 0.301008
0.118360 0.726805 -0.438683
-0.255529 -0.208974 -0.598841
0.085371 0.702295 -0.290015
-0.117983 -0.505535 0.650391
0.106355 0.442729 0.530154
0.065516 0.840338 -0.223858
0.275877 0.129854 0.409713
0.075038 -0.274470 0.629695
-0.214772 0.570307 -0.108617
-0.193484 0.908057 -0.062725
-0.423052 -0.320689 0.416745
-0.013727 0.009307 -0.180007
0.434328 -0.255306 0.480919
0.283836 -0.051210 0.388305
-0.227372 -0.469856 0.326101
-0.120352 -0.225760 -0.263491
0.001736 -0.354056 0.026358
0.150988 -0.730855 0.569842
0.044182 0.498856 0.579798
-0.356925 -0.263806 0.631659
0.015611 -0.092368 -0.096366
-0.177208 -0.227384 -0.474683
0.025307 -0.937619 -0.558511
0.088143 -0.288583 -0.683857
-0.022991 0.937610 -0.172938
-0.029617 0.655592 0.574927
0.216791 -0.470488 0.399267
0.059134 -0.967037 -0.114652
0.249605 0.530871 0.459091
-0.210788 0.878515 -0.161442
0.350152 0.448480 0.139747
0.092022 0.731351 -0.652516
0.184912 -0.349090 -0.108600
0.157656 0.869373 -0.252506
0.050271 -0.292572 -0.037236
0.284465 0.602868 0.436952
-0.307820 -0.288233 0.643357
-0.186519 -0.693573 0.533168
-0.049510 -0.755665 0.623034
0.149987 -0.808074 0.467473
0.152701 0.081940 -0.074415
-0.076890 -0.356517 0.040433
-0.284181 -0.341409 0.381391
0.310382 0.082443 0.314358
-0.148019 0.880835 -0.450804
-0.222229 0.674053 -0.671635
0.555379 -0.109368 0.446589
0.244766 0.728964 0.268264
0.397714 -0.361389 0.362604
0.062790 -0.298371 -0.516827
0.264511 0.313572 0.023973
0.074592 0.698979 -0.468741
0.073641 -0.876287 0.132507
-0.218699 -0.242464 -0.459585
0.100120 -0.708758 0.166941
0.039367 -0.090569 0.649946
0.045551 0.670391 0.534866
-0.368820 -0.308412 0.603140
0.006642 -0.076313 0.662967
0.332091 -0.339431 0.493366
0.238766 -0.251792 -0.377405
0.260105 0.235814 -0.082029
-0.039249 0.075974 -0.151743
-0.204639 -0.166069 -0.141284
0.281231 0.756975 0.142375
0.141134 0.826354 -0.650258
-0.185115 0.507714 0.531639
0.134593 -0.773617 0.119083
-0.413742 -0.330532 0.419259
0.253329 0.294416 0.020581
0.390299 -0.234162 0.556346
-0.217087 -0.924890 0.025012
0.426077 -0.251988 0.384451
-0.272809 0.436271 0.418986
0.238060 0.800067 -0.130619
0.093930 0.791838 -0.285973
-0.071220 0.909814 -0.051922
-0.090153 0.845582 -0.309377
0.160702 0.878267 -0.657713
-0.263523 -0.373498 0.003712
-0.101393 -0.110123 -0.116232
-0.116577 0.617057 0.534916
-0.289803 0.424125 0.332313
-0.079998 0.871403 0.021480
-0.315816 -0.297119 0.617341
0.510287 -0.214943 0.424992
-0.297298 -0.308380 0.018796
0.098725 -0.440473 0.228005
0.172038 -0.279294 -0.667285
0.113311 -0.602151 0.629372
-0.181331 0.446091 -0.175897
-0.032028 -0.917149 -0.617866
-0.207541 -0.239311 -0.269013
0.105272 0.763426 -0.421490
0.184604 0.870849 -0.025668
0.330696 0.286482 0.025675
0.204196 0.601052 0.462956
0.082445 -0.076651 0.568204
-0.096678 -0.086487 -0.113568
-0.047199 -0.866470 0.445847
0.373810 -0.430748 0.165469
-0.180622 -0.638162 0.493212
0.205882 0.741042 -0.231340
0.036752 -0.996616 -0.065502
-0.242204 -0.220897 0.479089
0.252478 -0.328192 0.632421
0.023846 -0.207040 -0.625559
0.203010 -0.327648 0.621203
-0.007903 -0.482568 0.177251
0.294536 0.740638 -0.093527
0.558182 -0.153273 0.352978
0.071519 0.802226 -0.116149
-0.326519 -0.450056 0.159713
-0.029678 0.474634 0.603198
0.140320 -0.202853 -0.093387
-0.103394 -0.239797 -0.284546
0.023684 -0.939531 0.174773
0.242271 -0.380758 -0.695109
-0.066095 -0.056892 -0.132196
-0.050207 -0.212147 -0.343846
0.295488 -0.223332 0.317593
0.041921 -1.026790 0.097669
-0.317889 -0.207269 0.430347
-0.032057 0.085518 0.606064
-0.229591 -0.356811 -0.237301
0.260544 -0.472653 0.316736
-0.323628 -0.445790 0.143671
-0.183807 0.800125 -0.459254
-0.116152 0.925213 -0.221578
-0.244893 0.643108 0.504315
-0.312762 -0.374588 0.385894
0.221146 -0.914099 0.024808
-0.358223 -0.295843 0.406426
0.270448 -0.042565 0.496712
0.465022 -0.317368 0.217127
-0.122002 -0.634117 0.574007
-0.217034 -0.000726 0.520164
-0.230453 -0.646906 0.402936
-0.368988 0.519363 0.295069
-0.044821 0.552292 0.586375
-0.176535 -0.168726 -0.330446
0.104614 -0.855579 0.226173
-0.310816 0.456665 0.156883
0.148468 0.357129 0.538945
0.288765 0.622892 0.345408
-0.159624 0.218549 -0.170474
0.046295 -0.947381 -0.453910
0.190001 0.784590 -0.691667
-0.274133 -0.158505 0.335577
0.278619 -0.154813 0.239809
0.281802 0.335576 0.457942
-0.083936 -0.029199 -0.079353
0.135762 0.661393 -0.281324
0.197569 -0.114326 -0.235908
-0.067478 -0.861260 0.173342
0.200967 0.851591 -0.576724
0.089214 -0.868800 0.451741
-0.027303 0.750348 -0.216326
-0.117105 -0.854451 0.471857
-0.064681 0.564423 0.623160
-0.074619 0.832864 0.301702
0.056451 -0.980126 -0.247625
-0.155057 -0.645840 0.268262
-0.267332 -0.301059 0.197349
-0.204284 0.838033 -0.310641
-0.441727 -0.370283 0.137309
0.132877 0.878811 -0.223242
-0.114758 -0.298455 -0.712445
-0.100344 0.748163 -0.581835
-0.079484 0.839058 0.405008
-0.004119 -0.594849 0.169016
0.209472 0.801055 -0.075634
-0.099990 -0.788902 0.437578
0.303965 -0.326955 0.532843
0.077070 -0.248408 -0.541190
0.036206 -0.981189 0.152345
-0.384318 -0.271892 0.342394
0.190959 0.841469 -0.351408
-0.131062 0.249641 0.540333
0.399364 -0.222324 0.469370
-0.262308 -0.413148 0.568160
-0.191128 -0.164779 -0.408165
0.383752 -0.355873 0.311143
0.173605 0.564464 -0.185114
0.051627 0.887178 0.043229
-0.025001 0.846644 0.423737
0.180233 0.174211 0.487514
-0.020228 1.012150 -0.322981
0.283802 0.007384 0.102309
0.207455 0.837537 0.314731
0.305725 -0.410914 0.394092
0.333443 -0.434598 0.412837
-0.364647 -0.184858 0.664342
0.097639 0.824833 -0.686665
-0.107689 0.729418 0.510978
0.081393 -0.707930 0.168204
-0.069851 0.786990 -0.531242
0.232652 0.063863 0.065541
0.526568 -0.200881 0.311612
0.504438 -0.237678 0.357832
-0.171919 0.012545 0.553024
-0.392635 -0.340148 0.341408
0.476520 -0.319773 0.272592
-0.214601 0.695859 0.449267
-0.277271 -0.292290 0.504572
0.073188 -0.810431 0.198376
-0.038781 -0.274032 -0.650363
-0.060945 -0.523131 0.179285
0.394968 -0.322240 0.429121
0.299755 -0.281289 0.570270
-0.151114 0.362319 0.498624
0.058062 -0.707486 0.662922
0.287697 0.655546 0.100175
0.189848 0.705775 0.402833
0.008416 -0.966370 0.084304
-0.042129 -0.259144 -0.577417
-0.350639 -0.491289 0.095257
0.257978 -0.351257 0.153894
0.156062 -0.409053 0.226088
-0.027795 0.189956 -0.177559
0.496759 -0.149334 0.518741
-0.137201 -0.842857 0.181814
-0.031081 -0.035789 0.645535
-0.063922 -0.910765 0.005148
-0.094969 0.772832 -0.435514
0.109851 0.794338 -0.583459
-0.467193 -0.290376 0.266934
0.255380 0.174204 0.076548
-0.169334 -0.146337 -0.260335
-0.253396 0.639587 0.408618
-0.288749 -0.063532 0.202505
-0.423370 -0.203428 0.533339
0.295247 -0.324730 0.467985
0.121948 0.734581 -0.351826
0.128667 0.396342 -0.181474
0.100366 -0.282242 0.664016
-0.267243 0.103428 0.461318
0.066697 0.145078 0.576288
-0.327236 -0.109093 0.139151
0.212533 -0.173425 -0.690403
0.441770 -0.257177 0.332753
-0.153553 0.722163 -0.506126
-0.104121 0.652380 -0.310226
0.269062 -0.028155 0.233833
0.282469 0.299611 0.120713
0.265193 0.205823 0.123000
0.094249 0.833677 -0.295686
-0.142722 -0.763792 0.501488
-0.081711 -0.237068 -0.296085
0.085205 0.292439 0.536684
-0.021558 0.626298 -0.173629
-0.070278 -0.248512 -0.291503
0.290687 0.065662 0.302566
-0.095316 -0.585652 0.694050
-0.030756 0.932529 0.227805
-0.203286 0.837929 -0.406226
-0.074215 -0.882122 -0.009983
0.176575 0.873463 -0.079801
-0.037781 -0.167988 -0.051113
0.027795 -0.925548 -0.249626
-0.456822 -0.342807 0.317306
-0.460172 -0.264788 0.261335
0.032268 0.851582 0.430919
-0.306558 -0.149540 0.200689
0.307344 -0.105144 0.369235
-0.043343 0.955227 0.068214
0.219963 -0.495148 0.364886
-0.238352 -0.237534 -0.412793
-0.069016 -0.849070 0.350171
0.286302 -0.331243 0.513531
-0.195749 -0.224916 -0.259607
-0.287117 -0.408975 0.413979
-0.137468 0.838232 0.323704
0.024242 0.967544 -0.036499
-0.064553 0.636741 0.597867
-0.182433 -0.288170 0.546983
-0.111126 -0.421565 0.651460
-0.204995 -0.447913 0.391615
0.295567 0.499695 0.363899
0.038813 0.864273 -0.071636
0.120904 0.153706 0.553261
-0.095884 0.736707 -0.580151
0.262217 0.556438 0.034276
-0.050153 -0.862358 0.092382
-0.153977 0.849657 -0.515768
-0.217844 -0.300297 0.468837
-0.107294 0.898880 0.234042
0.002236 -0.809822 0.542802
-0.212551 -0.418100 0.541870
-0.379108 -0.280009 0.484858
-0.098703 0.901764 -0.178190
0.209432 0.277776 -0.121045
-0.081467 0.089582 -0.159360
0.214700 -0.158709 -0.215952
-0.158684 -0.264516 0.578721
0.303026 -0.232024 0.289153
0.181280 0.360940 -0.147885
-0.367850 -0.337713 0.366515
-0.262833 -0.317187 -0.103950
0.276319 -0.155345 0.420210
0.267031 -0.456188 0.575262
-0.365171 -0.217245 0.291819
-0.284038 0.524550 -0.032762
-0.179934 -0.177498 -0.487206
-0.224749 0.303654 -0.115301
-0.070280 0.979161 0.171127
-0.114267 -0.327549 -0.463340
0.162870 -0.443242 0.321993
-0.143263 -0.175745 -0.507028
-0.349586 -0.274634 0.478561
-0.239322 0.238882 -0.141623
0.042315 -0.993257 -0.081674
-0.305697 -0.301499 0.465230
0.180493 -0.321699 -0.496520
0.302634 -0.352523 0.540718
0.093567 0.692776 -0.397583
-0.310129 0.672766 -0.039267
0.390168 -0.384860 0.414941
0.400420 -0.358812 0.297385
-0.268519 -0.436194 0.583482
-0.154827 0.953746 0.165502
0.111994 0.702855 0.579756
0.084199 -0.858947 -0.087808
-0.257051 0.633128 0.382083
-0.436934 -0.301383 0.349027
-0.020277 0.616154 0.554500
-0.219407 -0.159163 -0.173741
0.219198 -0.191280 -0.478347
-0.154968 -0.446564 0.613877
-0.365690 -0.304945 0.494206
0.237306 0.442398 0.541804
-0.295848 0.629079 0.264906
0.145163 -0.775024 0.447753
-0.283753 0.066828 0.155746
0.333942 -0.421263 0.123087
-0.163357 -0.258898 -0.548090
-0.135438 -0.333250 -0.460984
-0.286970 -0.405958 0.417230
0.172048 -0.406517 0.089530
-0.211611 0.752770 0.310332
0.254474 -0.512447 0.178237
0.401035 -0.310176 0.384855
-0.130563 -0.093827 -0.076617
-0.205880 0.778200 -0.331420
-0.011224 -0.891918 0.340426
-0.300645 -0.390976 0.299356
0.166569 -0.389297 -0.139764
0.180132 -0.321654 0.557418
-0.183357 0.090076 0.518845
-0.214016 -0.371482 0.360178
0.511134 -0.119379 0.492023
0.019528 0.704050 -0.169192
-0.089668 0.811701 0.385598
-0.141891 -0.739816 0.380237
-0.096502 0.837368 0.318119
0.171040 -0.390979 0.371419
-0.140939 -0.366083 -0.416323
0.000612 -0.981056 0.100783
0.144197 -0.677377 0.497110
-0.149956 -0.315131 -0.663310
-0.036907 1.000770 -0.244837
0.206564 0.623748 -0.144766
-0.168421 -0.684945 0.570205
0.200514 -0.340120 -0.357464
-0.197335 -0.348388 -0.308030
0.048314 -0.082473 0.667152
0.267142 -0.336843 0.104321
-0.109087 0.625425 -0.200732
0.210802 -0.238169 -0.353605
-0.126923 0.545274 0.563760
-0.070936 -0.890002 -0.050296
0.198161 -0.240347 -0.694762
0.262866 -0.437504 0.347687
-0.252196 -0.254175 -0.088298
-0.092035 -0.330530 -0.045366
0.143703 -0.201394 -0.292311
-0.290778 0.301374 0.218456
-0.057614 0.860447 0.367180
-0.183239 -0.093811 -0.108389
0.037017 0.790071 0.508011
0.239171 -0.091041 -0.031665
0.045376 1.008080 0.078761
0.195668 -0.177364 -0.528178
-0.039484 0.808022 -0.289326
0.434577 -0.240048 0.530803
-0.294643 -0.438747 0.387661
0.241582 -0.431809 0.231855
0.304684 -0.165408 0.423580
-0.173124 -0.862705 0.032584
0.449471 -0.299252 0.355302
0.275289 0.766794 0.011598
0.193156 -0.486728 0.550117
-0.209932 0.650691 -0.250885
-0.254722 0.708883 0.376646
0.256277 0.273493 0.437663
0.285297 0.740634 -0.170915
-0.061600 -0.871841 0.169115
-0.438983 -0.304043 0.311720
0.261332 -0.251279 -0.229043
-0.252271 -0.442850 0.557581
-0.159604 -0.186398 -0.676246
0.319722 -0.425301 0.360346
-0.087998 0.707079 -0.602765
0.181353 -0.635397 0.582102
0.222843 0.009476 0.492757
-0.232210 -0.207159 -0.178556
0.052009 -0.930887 -0.326488
-0.308634 0.467210 0.336881
0.078218 0.800080 -0.504594
0.118885 -0.192438 0.613696
0.236759 -0.195225 -0.345422
0.217291 -0.356611 0.154695
0.024206 0.999190 -0.103561
0.048744 -0.995600 0.162150
-0.311246 -0.472540 0.169888
0.272249 -0.293833 -0.051692
0.267105 -0.272481 0.371574
0.116198 -0.065486 0.619875
-0.143212 0.316329 0.547027
-0.206819 -0.623353 0.522344
-0.023848 0.417481 -0.260014
0.431377 -0.289706 0.393817
-0.082898 -0.314102 -0.030217
0.069736 -0.241380 -0.176950
-0.187975 -0.377982 -0.098282
-0.291281 -0.323601 0.607267
-0.141736 -0.700131 0.500229
-0.212586 0.121448 -0.050266
0.098592 -0.817615 0.154662
-0.242171 -0.482657 0.210114
0.033241 0.767347 -0.370767
0.170572 0.234690 0.531760
-0.244713 0.710135 0.324435
0.361143 0.341499 0.165767
0.325152 -0.285283 0.426857
-0.191408 0.931478 0.006452
-0.056633 0.744648 -0.317964
-0.087766 0.652526 0.520995
0.135354 -0.115413 0.607892
-0.304330 0.481029 0.368266
0.302326 0.209283 0.050667
-0.082826 0.594733 -0.211799
-0.178347 0.857133 0.278546
0.183104 0.831655 -0.227895
-0.311969 -0.471882 0.200909
0.105511 0.501318 0.538049
0.213958 -0.280651 -0.296521
0.266562 0.252785 0.217092
-0.257961 0.079392 0.061744
-0.007374 0.979558 -0.133038
-0.279561 0.167412 0.314868
-0.176317 -0.744536 0.481937
0.271469 -0.346449 0.265144
-0.112504 -0.341058 0.619901
-0.191634 0.803539 0.203424
-0.137111 0.850696 -0.526433
0.218995 -0.367916 0.012125
0.287705 0.668153 0.028656
0.292057 -0.175763 0.435674
0.277384 0.233658 0.126100
-0.220666 -0.379414 0.465704
0.311228 -0.491987 0.251462
-0.310154 0.648161 0.033888
-0.174808 -0.511593 0.640407
0.083201 0.676840 0.565044
-0.020352 0.896922 -0.005340
-0.330617 -0.209453 0.166158
0.110280 -0.338973 -0.637553
0.292626 -0.268168 -0.032958
-0.087960 -0.320822 -0.068085
0.098134 0.857693 0.284411
0.228501 -0.485929 0.528458
0.330248 -0.190845 0.305443
0.152515 0.114840 -0.181590
-0.025460 -0.716832 0.119335
0.006067 1.009640 0.091299
-0.366400 -0.400898 0.262033
0.249900 -0.084960 0.089565
0.156889 0.521382 0.528280
-0.285242 0.626348 -0.047255
0.194444 0.768721 -0.329813
-0.257178 -0.465934 0.448676
0.206046 -0.316554 -0.330521
0.039116 -0.131996 -0.076422
0.243314 -0.395654 -0.257967
-0.081217 -0.348577 -0.020499
0.047015 -0.455010 0.191739
0.008177 -0.871378 -0.248507
0.299900 0.635288 0.210468
-0.247124 0.255323 -0.017723
0.043034 -0.166873 0.669866
0.220733 0.769774 -0.613960
0.496125 -0.253012 0.302434
0.070557 -0.309810 -0.276068
-0.172044 -0.685029 0.385150
0.276899 -0.095350 -0.023276
-0.049003 0.876799 0.500266
-0.277938 0.218757 0.022301
0.204281 -0.202586 -0.251919
0.134562 0.883584 -0.124807
0.205014 -0.395043 0.680289
-0.195851 0.556203 0.526900
-0.086444 0.857278 -0.607208
-0.277089 0.931264 0.042940
-0.061832 0.758000 -0.210191
0.121313 -0.166021 0.610995
0.163889 0.714693 -0.474290
-0.307966 -0.436256 0.218025
0.407960 -0.205980 0.533445
-0.083199 0.550990 0.577590
0.013339 0.749348 -0.153653
-0.277592 0.379510 0.460822
-0.281743 -0.288674 0.279165
0.471391 -0.258128 0.304260
-0.264762 -0.375056 0.505472
-0.333506 -0.322367 0.472760
-0.031625 -0.983902 -0.609586
-0.274382 0.166212 0.372982
-0.129767 -0.311939 -0.223825
-0.236153 -0.008541 0.045470
-0.134878 -0.205626 0.609546
0.102494 -0.865296 0.465416
0.333605 -0.385056 0.522330
0.157941 0.848015 -0.509259
-0.114346 0.296275 0.562637
0.097978 0.833464 0.237167
0.074041 0.779371 -0.398942
0.299711 -0.264480 -0.142541
-0.350637 -0.266595 0.199808
0.061542 -0.943508 -0.298756
0.081039 -0.550019 0.252275
-0.307926 -0.199417 0.306937
-0.057212 0.810567 -0.252593
0.195059 0.820482 0.315666
0.164289 -0.360407 0.006876
-0.125469 -0.378153 0.015927
-0.013429 -0.974654 -0.398696
-0.053616 -0.918048 -0.104420
0.243573 -0.498765 0.517881
0.158868 -0.179120 -0.706558
-0.166464 0.413653 -0.138102
-0.077253 -0.194517 -0.334949
0.278018 -0.354190 0.526392
-0.244684 0.873081 0.085015
0.316861 0.124717 0.209620
0.333564 -0.190300 0.269920
0.289670 0.703016 0.294576
-0.188869 -0.594375 0.275265
-0.186189 0.695603 -0.396622
-0.008034 -0.948688 -0.272707
-0.246193 0.064022 0.127304
-0.286714 -0.461088 0.290321
0.105785 -0.262451 -0.222873
0.109396 0.207197 -0.202358
-0.155307 0.280724 -0.218721
-0.275883 0.173384 0.354060
0.545688 -0.261802 0.282074
0.166947 -0.890801 0.045431
0.204091 0.881810 0.077648
-0.178937 0.871924 -0.421277
0.233259 -0.250277 -0.446711
-0.160293 -0.331007 -0.340838
-0.250848 -0.486014 0.364645
-0.007620 0.069793 -0.190005
0.305469 -0.392521 0.521903
-0.091556 -0.291856 -0.196350
0.083393 -0.675724 0.678173
-0.140355 0.123160 0.555680
0.213006 -0.504361 0.511327
-0.088016 0.776591 -0.689392
-0.192022 -0.378142 0.291477
-0.358136 -0.404079 0.228327
0.279127 -0.106043 0.475718
0.141739 0.715654 -0.665782
-0.552550 -0.168833 0.448548
-0.278402 0.435567 -0.003671
0.006595 0.442127 0.603251
0.306883 0.087668 0.315650
0.261711 0.583571 0.173077
0.174833 0.736202 -0.416984
-0.104036 -0.114175 -0.132808
0.214025 0.624131 0.494820
0.296438 0.107153 0.129864
-0.329642 0.427842 0.344234
0.311372 0.438689 0.317951
-0.213909 0.034720 -0.097969
0.285296 0.183827 0.341833
0.159348 -0.216209 0.550064
-0.317771 0.394129 0.034489
0.238918 -0.196419 -0.251435
0.219263 0.856770 -0.054528
-0.204370 -0.325291 -0.345004
-0.237160 -0.414159 0.291653
-0.354907 -0.233048 0.514952
-0.145087 -0.270893 -0.674436
0.288903 -0.479563 0.465687
0.131873 -0.159233 -0.190929
-0.303056 0.358473 0.107109
0.256264 -0.176573 0.454870
-0.373204 -0.383699 0.585753
-0.324993 -0.212542 0.259431
-0.293649 0.400347 0.089593
0.188084 -0.507723 0.315797
-0.115966 0.792565 0.424063
0.307411 0.391994 0.257408
0.155289 -0.280690 -0.552173
0.213401 -0.191115 -0.135639
-0.436696 -0.309976 0.291701
-0.055409 0.855402 0.463886
-0.287967 -0.127395 0.120186
-0.584329 -0.121715 0.397031
0.245668 0.650098 0.398516
-0.302507 -0.084639 0.038923
-0.116664 0.848904 -0.532102
0.239601 -0.043112 0.486314
-0.227700 -0.127905 0.503221
0.085103 -0.033825 0.615088
-0.152428 -0.530148 0.184341
-0.274123 0.333541 0.059659
0.361481 -0.296872 0.441461
0.098516 -0.059777 -0.128541
-0.188102 -0.145092 -0.382400
-0.228974 0.358852 0.464836
-0.386282 -0.266289 0.511213
-0.029185 -0.537595 0.218718
-0.262398 0.288845 0.320305
-0.219892 0.774344 0.056017
-0.187216 0.434749 -0.125809
0.009441 -0.674291 0.707622
0.245321 -0.295658 -0.406357
0.430266 -0.302882 0.432635
0.511223 -0.246973 0.360040
0.133441 -0.642311 0.627395
0.073357 -0.791847 0.554623
-0.168766 -0.719301 0.395999
-0.259993 0.043569 0.217361
-0.204876 0.616839 -0.121889
0.290482 -0.163011 -0.160647
0.084055 0.835399 -0.580846
0.228991 -0.339667 0.038465
-0.481814 -0.153734 0.569996
0.011320 -0.969473 -0.520072
-0.137831 0.041137 0.585010
