-0.210560 -0.212632 -0.416138
-0.324890 0.322981 -0.278891
-0.335319 0.311845 -0.265305
-0.330031 0.334101 -0.280214
-0.194730 -0.173391 -0.436231
-0.192378 -0.159441 -0.421565
-0.198209 -0.166324 -0.425307
-0.352934 0.313856 -0.360303
-0.353340 0.294219 -0.327776
0.283190 0.198966 -0.296231
-0.331776 0.300030 -0.324800
-0.202658 -0.192466 -0.431668
-0.205839 -0.191822 -0.403049
-0.186058 -0.205587 -0.421857
-0.214566 -0.199018 -0.425731
-0.351334 0.135609 -0.334545
-0.194858 -0.331742 -0.429144
-0.212721 -0.324007 -0.423984
-0.203029 -0.331844 -0.423297
-0.016835 -0.157381 0.325841
-0.015680 -0.149221 0.325832
0.018639 -0.158433 0.322299
0.006204 -0.410419 -0.331297
-0.011505 -0.411079 -0.336540
0.083608 -0.347400 0.120272
0.099301 -0.346313 0.138623
0.047116 0.115473 -0.432568
-0.027917 -0.178333 0.380963
-0.018089 -0.150045 0.341437
0.207440 0.235210 -0.249411
0.200963 0.256110 -0.273788
0.179013 0.250981 -0.275351
-0.100038 0.126994 -0.426076
0.067153 -0.310212 -0.424308
0.079746 -0.301905 -0.406990
0.073276 -0.310641 -0.419761
0.113856 -0.312181 0.140906
0.147586 -0.337792 0.127648
0.151688 -0.332277 0.118893
0.182275 -0.341833 0.107970
0.145714 -0.352248 0.125343
0.034624 0.104913 0.128385
0.031461 0.093945 0.133497
-0.269504 0.048346 -0.419390
-0.296089 0.062666 -0.442994
0.108861 -0.154370 0.117696
-0.243058 0.124226 -0.420429
-0.255748 0.158576 -0.425293
-0.247351 0.141369 -0.430655
-0.241546 0.188111 -0.422037
-0.238410 0.154328 -0.417010
-0.236671 0.185480 -0.426022
-0.202889 0.179335 -0.410618
-0.209357 0.143389 -0.418891
0.042476 0.104527 0.142237
-0.221308 0.133502 -0.403666
-0.209242 0.142493 -0.437158
-0.221766 0.122335 -0.425691
-0.001127 -0.307482 0.369289
-0.279371 -0.214879 -0.421021
-0.281055 -0.204012 -0.417099
-0.286105 -0.208875 -0.427252
0.053429 0.141905 0.131630
-0.331861 -0.135572 -0.387416
-0.335359 -0.152337 -0.407950
-0.313652 -0.155479 -0.392383
-0.025923 -0.038186 0.140476
-0.030266 -0.040127 0.137968
-0.013781 -0.045595 0.145382
0.074343 -0.148635 0.121045
-0.322965 -0.075967 -0.333484
-0.089061 -0.283060 -0.035355
-0.098950 -0.325027 -0.035918
-0.096520 -0.292615 -0.045933
0.299678 -0.145105 -0.020020
-0.338149 -0.176407 -0.359811
0.277458 -0.307718 0.032481
0.255161 -0.303971 0.027642
0.254103 0.136336 0.034579
0.265800 0.140059 0.040912
0.274662 0.129880 0.024783
-0.349585 0.397079 0.103340
-0.282398 0.437707 0.317114
0.289786 0.143751 0.024469
-0.215232 0.342319 0.413687
-0.245538 0.343909 0.424002
-0.236149 0.325072 0.435235
-0.140127 -0.121317 0.298760
-0.135905 -0.106137 0.274252
0.269057 0.078070 0.031338
0.265670 0.088246 0.028381
-0.212065 0.370349 0.434288
-0.228638 0.365226 0.421995
-0.238123 0.364154 0.416941
-0.225264 0.359511 0.426298
0.269219 0.314691 0.032059
0.256110 0.336626 0.038019
0.267450 0.302677 0.053813
0.300530 -0.324641 -0.020162
0.304236 -0.321113 -0.014130
0.310329 -0.330700 0.005319
0.275230 0.295325 0.020153
0.251539 0.085517 0.049845
0.239976 0.096699 0.040334
0.229054 0.306291 -0.056003
-0.099270 -0.348476 -0.029205
-0.106533 -0.290986 -0.272033
-0.151362 0.257717 0.253721
-0.146234 0.261010 0.259431
-0.126346 0.249380 0.288328
-0.130982 0.279481 0.296049
0.243869 0.307693 0.069339
0.256223 0.318027 0.066569
0.254273 0.308810 0.053275
-0.142732 0.345666 0.250704
-0.139338 0.371928 0.253244
-0.124846 0.341234 0.260361
0.225754 0.096006 0.079239
0.233202 0.119097 0.072388
0.238369 0.139499 0.079277
0.221728 0.146194 0.066717
0.214410 0.125443 0.070252
0.212312 0.289250 0.091993
-0.203495 0.090340 0.415246
0.220809 0.341962 0.072371
-0.190938 -0.304282 0.412740
-0.186111 0.076261 0.432562
-0.157560 0.092863 0.427483
-0.317138 0.308982 -0.004684
-0.312594 0.318487 -0.019452
0.311899 -0.254039 -0.026247
0.316751 -0.240491 -0.035982
0.306924 -0.245314 -0.040813
-0.155637 0.012814 0.428072
0.063187 0.293529 0.127803
0.048713 0.290351 0.134603
-0.137581 -0.029762 0.380915
0.320349 -0.327098 -0.063094
0.324611 -0.309644 -0.055706
0.318423 -0.306877 -0.072854
-0.186946 0.050705 0.433491
-0.194094 0.034477 0.425333
-0.001534 -0.291486 0.349642
0.309950 -0.341016 -0.049123
0.321765 -0.311424 -0.059582
-0.206237 0.327497 0.419835
-0.177259 0.365333 0.418916
-0.187075 0.332914 0.412583
0.298201 0.126869 -0.011340
-0.291484 0.134239 0.419490
0.287768 0.057257 -0.022389
0.307561 0.072649 -0.044987
-0.284170 0.213303 0.430672
0.304279 0.301563 -0.017844
0.311563 0.330117 -0.015740
0.320297 -0.130456 -0.044523
-0.275911 0.037817 0.414105
-0.240426 0.054975 0.417927
-0.244953 0.053387 0.417164
-0.266267 0.134888 0.423328
-0.300341 0.145504 0.431041
0.159061 0.411024 -0.413540
0.151907 0.385927 -0.427046
0.322131 0.284347 -0.030364
0.311038 0.311868 -0.036707
-0.221479 0.253815 -0.425471
-0.191681 0.256703 -0.437564
-0.339228 -0.374529 -0.241990
-0.329554 -0.405878 -0.256379
0.104924 -0.379694 0.037624
-0.178682 0.227173 -0.437555
-0.210179 0.028284 0.431961
-0.208431 0.047185 0.427592
-0.249851 0.463216 0.131938
-0.233862 0.435630 0.117900
-0.307803 -0.054265 0.433621
-0.287216 -0.063908 0.419012
-0.221807 0.449908 -0.318972
0.312721 -0.083113 -0.095040
-0.165849 -0.253226 0.230020
0.316357 0.116237 -0.050601
0.315572 0.093934 -0.053568
-0.197527 -0.446637 -0.331980
-0.278176 -0.108646 0.427569
-0.279105 -0.118757 0.425029
0.009184 -0.369246 0.434852
0.012590 -0.360647 0.436779
0.307329 0.325255 -0.042262
-0.320532 -0.116518 0.316670
-0.336782 -0.108903 0.334729
0.279304 0.040492 0.024302
0.278914 0.022354 0.025626
0.284850 0.030945 0.012499
-0.120707 -0.448337 -0.272353
-0.141984 -0.429466 -0.290877
0.308560 0.136153 -0.045177
-0.227749 0.002385 0.423261
-0.209222 -0.001699 0.430939
-0.225225 0.041091 0.427226
-0.226452 0.032835 0.421512
-0.150722 0.324139 0.154131
-0.282770 0.297956 0.426429
-0.283549 0.320029 0.425259
-0.297132 0.318752 0.425071
-0.351306 0.256468 0.391821
-0.334689 0.260578 0.394190
-0.103995 0.319318 -0.036298
-0.093977 0.286607 -0.036256
-0.116726 0.300185 -0.059613
-0.307122 0.181975 0.378034
-0.336301 0.195988 0.366812
-0.286290 0.221730 0.421601
-0.336223 0.019897 0.386741
0.274414 0.193752 0.010608
0.291859 0.177983 0.015115
0.284194 0.149943 -0.002716
-0.316015 0.253021 0.369005
-0.330643 0.220555 0.355037
0.315601 0.129679 -0.037377
0.104783 0.129867 0.048409
-0.329916 -0.404148 -0.198295
-0.329098 0.224254 0.355411
-0.324772 0.338574 -0.218340
-0.321709 0.335865 -0.239251
0.327607 0.152882 -0.052854
-0.331521 0.349565 -0.234779
0.141401 0.282507 -0.310928
-0.328331 0.142057 -0.109214
-0.349373 0.159277 -0.140926
-0.326787 0.111866 -0.145659
-0.259197 0.300448 0.426940
-0.270661 0.294465 0.414023
-0.298182 0.045652 0.418504
0.301097 0.271875 -0.020196
-0.336950 0.188606 -0.147677
-0.329454 0.182066 -0.151881
0.310918 -0.323448 -0.029374
0.319791 -0.138816 -0.038887
0.316712 -0.138513 -0.034525
-0.040949 0.104342 0.129507
-0.058043 0.113339 0.133247
0.311305 0.292036 -0.013906
-0.055472 0.123111 0.135080
-0.068802 0.127429 0.148479
0.295470 0.187572 0.001738
0.292701 0.161507 0.003077
0.093801 -0.309940 0.144074
0.303732 0.053548 -0.001567
0.311595 0.047215 -0.005023
0.309856 0.053336 -0.034418
0.304275 0.137087 0.000880
0.302522 0.140427 -0.030184
0.215570 -0.287389 -0.046659
0.204540 -0.307613 -0.039374
0.068753 -0.331586 0.127727
0.173587 0.094035 -0.395663
-0.326580 -0.127117 -0.359517
-0.331054 -0.120495 -0.371131
0.194300 0.447512 -0.331648
0.198575 0.436285 -0.338195
0.241731 -0.393034 -0.348405
0.262959 -0.405753 -0.352104
-0.244416 0.052386 0.426842
-0.222698 0.022834 0.415537
0.213310 -0.296073 0.100635
0.197078 -0.317376 0.098234
-0.331262 -0.138443 -0.351909
-0.340636 -0.112194 -0.329686
-0.188505 -0.420797 -0.420944
-0.042845 0.111518 -0.430478
0.236469 0.188647 0.063340
-0.112959 0.306018 -0.055211
0.231262 -0.089767 -0.256520
0.250167 0.171436 0.043041
0.245821 0.082299 0.058877
-0.254557 -0.407028 0.431217
-0.071057 0.383441 -0.431153
-0.083094 0.371850 -0.442162
0.262012 -0.301625 0.027609
0.259102 -0.286757 0.035816
0.278738 -0.280784 0.033937
0.242260 0.165239 0.044039
0.253998 0.384963 0.047433
0.260737 0.396552 0.043410
-0.180048 0.429073 0.017266
0.231337 0.080209 0.058466
0.256946 0.089027 0.048586
0.261711 0.138107 0.046856
0.265026 0.151445 0.046051
0.056877 -0.195622 0.163692
0.279626 0.280410 0.034141
0.283533 0.289131 0.023990
-0.157890 0.420817 -0.363581
0.309554 -0.298600 -0.011571
0.282328 -0.309987 -0.028166
0.306777 -0.287458 -0.029021
0.262789 0.299053 0.060480
0.262560 0.151115 0.027798
0.265319 0.192072 0.012198
0.267642 0.065349 0.059672
0.286403 0.068971 0.022610
0.287549 0.145347 0.015013
0.278106 -0.237945 0.021377
0.284658 -0.296494 -0.000693
0.298835 -0.154576 -0.011297
0.313192 -0.160401 -0.019928
0.077881 0.127759 0.124587
-0.194810 -0.445250 0.294088
-0.190350 -0.456742 0.302916
-0.182192 -0.439041 0.325771
-0.036695 -0.442437 0.416317
-0.226590 0.106525 0.420720
0.063048 -0.155659 0.118846
-0.034675 -0.454221 0.321479
-0.033559 -0.457232 0.316003
-0.348909 0.223222 -0.295456
-0.176293 -0.397427 0.426775
-0.169264 -0.402069 0.411504
0.009552 0.260446 -0.412991
-0.005910 0.227667 -0.431910
-0.016053 0.266983 -0.432633
-0.325436 -0.218957 -0.252966
0.178600 -0.310864 0.131454
-0.093348 0.344333 -0.017965
-0.091577 0.339259 -0.033780
-0.110657 0.331731 -0.031369
-0.353502 0.027379 0.299317
-0.341543 0.060303 0.280947
-0.330041 0.050618 0.262338
0.023380 0.058057 0.146212
-0.237885 -0.450952 0.393262
0.284356 -0.201499 -0.002919
0.302630 -0.227346 0.021932
0.296804 -0.206732 0.002597
-0.070432 0.399802 0.007980
-0.054901 0.369191 0.006513
-0.079374 0.382834 0.008670
-0.050817 -0.144594 0.130554
0.230228 -0.269896 -0.231271
0.228517 -0.270523 -0.215399
-0.140492 -0.441391 0.190466
-0.136078 -0.429306 0.191864
-0.144490 -0.270839 -0.419792
-0.144198 -0.288708 -0.437203
-0.180608 -0.276728 -0.436382
0.247296 -0.395036 -0.081221
0.252752 -0.379831 -0.094854
0.277256 0.451546 -0.219121
-0.180852 -0.299299 -0.414781
-0.166658 -0.293689 -0.421508
-0.196431 -0.284531 -0.416018
-0.221504 -0.372618 -0.423242
-0.236472 -0.351907 -0.422468
-0.255788 -0.340387 -0.422263
-0.292083 -0.078708 0.421984
-0.255676 -0.327445 -0.430388
-0.243175 -0.325221 -0.421395
-0.182755 -0.288205 -0.425321
0.277178 -0.415165 0.012830
0.276030 0.452036 -0.191731
-0.252930 -0.240552 -0.439308
-0.232499 -0.238096 -0.418757
-0.258476 -0.225817 -0.428301
-0.241808 -0.213936 -0.424891
-0.247377 -0.224214 -0.419834
-0.185675 -0.178573 -0.409338
0.269504 0.438836 -0.110183
-0.183762 -0.239270 -0.427518
-0.201279 -0.222543 -0.431661
-0.181380 -0.228968 -0.425803
0.269479 -0.152549 0.076161
-0.114461 -0.198036 -0.418400
-0.076681 -0.217184 -0.435124
-0.111742 -0.193319 -0.440530
-0.104566 -0.182707 -0.417724
-0.290860 -0.449910 -0.062702
-0.260946 -0.219599 0.414569
-0.287511 -0.227625 0.411901
-0.267096 -0.230509 0.412782
-0.072701 0.365970 -0.004024
-0.088729 0.331349 0.007913
-0.084990 0.343304 -0.009487
0.291545 -0.180598 -0.024167
0.301041 -0.165578 -0.021067
0.290105 -0.166990 -0.006063
-0.330593 -0.089104 0.151479
-0.330109 -0.101023 0.161331
0.250746 -0.229628 0.031968
0.286793 -0.221008 0.035412
0.263867 -0.238572 0.027993
-0.207210 -0.402996 0.418267
-0.206485 -0.401887 0.430785
-0.196787 -0.416355 0.420401
0.018371 -0.181931 0.217737
-0.099016 0.307461 0.162328
0.240045 0.306032 -0.151305
0.239613 0.333145 -0.170940
0.255186 0.302109 -0.160672
-0.085536 -0.298727 -0.012385
-0.062624 -0.323298 -0.422304
-0.075627 -0.307595 -0.410122
-0.047071 -0.317621 -0.430551
-0.095650 -0.318872 -0.413125
-0.080398 -0.295839 -0.420921
-0.063813 -0.285106 -0.440077
-0.078325 -0.294521 -0.413841
-0.041790 -0.298954 -0.409186
-0.058464 -0.285549 -0.415386
-0.055152 -0.290914 -0.415762
-0.030570 -0.310969 -0.416653
-0.018035 -0.261291 -0.420063
-0.014361 -0.273290 -0.426179
0.015099 -0.298470 -0.430725
-0.025501 -0.306614 -0.422644
-0.007378 -0.280954 -0.423448
0.062591 0.444817 -0.360933
0.255139 -0.038887 0.042898
0.256913 -0.052236 0.049698
0.256752 -0.052011 0.033805
0.068201 0.454913 -0.382108
0.029193 0.434982 -0.382011
-0.021672 -0.320878 -0.419517
0.132206 0.025005 0.034892
0.098421 0.028931 0.051829
-0.181370 0.196553 -0.430532
-0.027796 -0.121803 -0.410835
-0.021260 -0.133709 -0.414675
-0.247174 0.084075 0.420374
-0.137529 0.009108 0.185149
-0.136163 -0.004155 0.172718
-0.124056 0.014031 0.180198
-0.149042 0.198637 -0.432056
-0.170434 -0.263010 -0.424750
-0.182589 -0.245934 -0.426832
0.108871 -0.122137 -0.401416
0.095682 -0.104920 -0.401385
-0.226974 -0.025016 0.431359
-0.215741 -0.022332 0.403601
-0.125864 -0.440799 0.097091
-0.089325 -0.433623 0.094582
-0.064140 -0.156099 0.387207
-0.200882 -0.037616 0.422379
-0.263083 0.151405 0.404143
-0.267757 0.155622 0.417399
-0.273913 0.132460 0.431707
-0.025112 -0.137073 0.130308
0.130252 0.165451 -0.416503
0.144442 0.170705 -0.408799
0.140603 0.140976 -0.407776
-0.333559 -0.101444 -0.064570
0.058054 0.252809 -0.430993
-0.002782 0.306637 0.037758
-0.005642 0.319273 0.034963
-0.002226 0.321396 0.042740
0.006639 -0.451287 0.151582
-0.340560 -0.407186 -0.210638
-0.340267 -0.391926 -0.216925
0.051887 -0.296796 -0.413025
0.015915 -0.312548 -0.428954
-0.177249 0.367967 0.423585
-0.194826 0.359867 0.411045
-0.159183 -0.246226 -0.433933
-0.141460 0.408542 0.347018
-0.263336 -0.345137 0.331720
0.070544 -0.285604 -0.425719
0.088013 -0.283054 -0.431332
0.136341 -0.254962 -0.390037
0.173861 0.371775 0.003681
0.181209 0.367327 0.021120
0.171309 0.379857 0.022961
-0.162652 0.070270 0.418183
0.110581 0.208565 -0.422318
-0.115361 -0.168193 0.422410
0.127528 0.060689 0.118605
0.140482 0.051543 0.112726
-0.124439 -0.316391 0.426550
-0.133282 -0.323148 0.420182
0.193728 -0.470459 0.030895
0.201335 -0.437683 0.060535
0.192872 -0.272534 -0.379449
0.203959 -0.308045 -0.380810
0.190687 -0.313179 -0.390578
0.005659 -0.401055 0.421773
0.004570 -0.386439 0.433575
0.103564 -0.396188 0.117143
0.120521 -0.377295 0.138140
0.129199 -0.260619 -0.400841
0.120779 -0.261668 -0.417054
0.104463 -0.212780 -0.416878
0.222117 -0.441330 0.002211
0.199926 -0.435606 0.015878
-0.157055 -0.373892 0.321747
-0.119774 -0.374356 0.298285
0.276011 -0.164940 0.027041
0.274432 -0.194605 0.034215
0.250017 -0.158224 0.031526
-0.225400 -0.171527 0.417799
-0.240367 -0.167828 0.425620
-0.251339 -0.164008 0.426536
-0.146820 0.385130 -0.420008
0.240111 -0.151169 0.055948
0.250305 -0.164225 0.037328
0.057933 -0.406749 0.183342
-0.243491 0.434759 0.309612
-0.242197 0.442876 0.309708
-0.251685 0.433503 0.299161
0.202041 -0.307367 -0.371681
0.311094 -0.223421 -0.271758
0.301973 -0.259541 -0.257936
0.301979 -0.239871 -0.257773
-0.332772 0.288944 -0.386779
-0.160437 0.203962 0.347250
0.245583 -0.460370 -0.052638
0.218676 -0.220121 0.085689
0.231147 -0.177614 0.088828
0.202763 -0.236121 0.084254
-0.062479 -0.432988 0.008815
0.225458 -0.185474 -0.367165
0.213214 -0.176399 -0.360510
-0.205767 -0.018311 -0.427377
-0.236913 -0.019901 -0.425545
-0.186836 -0.037348 -0.417735
0.223107 -0.293008 -0.388840
0.192947 -0.303458 -0.377083
0.256482 -0.271002 -0.344652
0.252658 -0.280373 -0.363057
0.236672 0.160410 -0.360202
-0.113043 -0.187845 0.428574
-0.324263 0.204350 0.032862
-0.337920 0.185383 0.023669
-0.328991 0.192241 0.047695
-0.277153 -0.380881 0.253063
-0.270096 -0.368619 0.243445
-0.131327 0.201128 0.358718
-0.142411 0.199055 0.339454
0.258479 0.158480 -0.311495
0.002475 0.298870 -0.331525
-0.016164 0.259275 -0.330814
0.015335 0.291863 -0.319401
-0.249541 0.448066 0.275226
-0.253283 0.433754 0.298932
-0.248082 0.452638 0.297651
0.264139 -0.240039 -0.341343
0.241955 -0.236466 -0.332184
-0.168043 0.071961 -0.414589
-0.190748 0.063181 -0.414160
-0.342897 -0.136162 0.151545
-0.345449 -0.138000 0.162223
-0.147832 0.407235 0.236574
-0.148934 0.214009 0.291481
-0.147757 0.220244 0.295896
-0.331472 -0.406682 -0.105768
-0.322493 -0.410066 -0.112638
0.228177 0.406976 -0.246417
0.233598 0.415801 -0.242570
0.230065 0.415483 -0.242426
0.255108 0.167304 -0.342495
0.257279 0.179273 -0.327368
0.281836 0.106914 -0.300349
0.279229 0.051662 -0.321281
0.268017 0.086122 -0.322197
0.325287 0.038586 -0.054011
0.314449 0.038515 -0.039392
0.224878 0.156506 -0.346593
-0.200727 0.410674 0.418525
-0.225610 0.397613 0.414741
0.264649 -0.283755 -0.332225
0.277828 -0.284811 -0.338795
0.279997 -0.317763 -0.336725
0.040972 0.281136 0.137685
0.043465 0.284206 0.123313
0.051698 0.296720 0.120686
0.215940 -0.445328 -0.314477
0.259352 0.321131 -0.121999
0.249251 0.289438 -0.132702
0.250612 0.290445 -0.131622
0.263114 -0.309635 -0.303369
0.261311 -0.334930 -0.325482
0.262204 -0.268085 -0.333062
0.279913 -0.284917 -0.315408
0.292124 0.254795 -0.290693
0.299797 0.284167 -0.289994
0.296985 0.258005 -0.284793
-0.188735 -0.457502 -0.156096
-0.187383 -0.453568 -0.163604
0.303008 0.187412 -0.274522
0.289432 0.174688 -0.274836
0.297166 0.164257 -0.281544
0.303133 0.113454 -0.283203
0.285309 0.111227 -0.285266
0.299022 0.137948 -0.286881
0.282790 0.147000 -0.318099
0.196425 -0.428933 -0.355550
0.194737 -0.452295 -0.345105
-0.229591 0.325966 0.437432
-0.211461 0.315915 0.431929
-0.192024 0.314268 0.434598
-0.166126 0.291343 0.410486
-0.185805 0.325440 0.413967
-0.223329 0.017345 -0.416562
-0.237628 0.011979 -0.416048
-0.237417 0.014273 -0.413055
-0.327220 -0.072900 -0.190553
-0.341170 -0.068827 -0.186918
-0.319533 -0.070506 -0.174031
0.311030 0.154359 -0.238606
0.321178 0.144291 -0.217996
0.338753 0.271077 -0.233389
0.321453 0.300577 -0.245975
-0.230820 -0.112345 -0.417782
-0.247656 -0.111342 -0.427660
-0.261814 -0.088846 -0.428715
0.294116 -0.304910 -0.275521
0.308659 -0.288680 -0.290138
0.295007 -0.285249 -0.259819
-0.323859 -0.392332 -0.131105
-0.320381 -0.397390 -0.138919
-0.333886 -0.393947 -0.119217
-0.124215 -0.449282 -0.378726
0.321721 0.282924 -0.220598
0.304252 0.259946 -0.238631
0.297352 0.183104 -0.221025
0.302034 0.170722 -0.221404
0.311374 0.144345 -0.269107
0.312930 0.159116 -0.256074
0.300281 0.072708 -0.243870
0.309717 0.088387 -0.249970
0.291969 0.147953 -0.269522
0.314424 -0.288682 -0.238098
0.015448 -0.389130 -0.340728
0.301271 -0.293477 -0.226607
-0.334842 -0.216310 0.307051
0.329872 0.118158 -0.174539
0.325699 -0.308225 -0.197941
0.318766 -0.308153 -0.220367
0.327460 -0.281716 -0.222987
0.330415 -0.164448 -0.225899
0.327361 -0.170954 -0.235967
0.311809 0.274748 -0.183648
0.339695 0.274921 -0.169907
0.319534 0.250265 -0.161150
0.295390 0.157069 -0.036200
-0.061819 0.041055 -0.423759
-0.057524 0.040157 -0.418062
0.335800 0.153966 -0.193532
0.315015 0.130734 -0.207215
0.319260 0.145658 -0.192139
-0.335351 0.098133 -0.371427
-0.340683 0.080421 -0.383206
-0.078966 0.036153 -0.429292
-0.100839 0.048757 -0.425359
0.322683 0.136611 -0.228474
0.327546 -0.298761 -0.171309
-0.101100 -0.009159 -0.010580
-0.117165 -0.022826 -0.017611
0.345535 -0.293608 -0.175747
-0.037477 0.322777 0.014230
-0.061537 0.321833 0.013368
-0.046040 0.314932 0.016863
-0.237811 0.304560 0.405027
0.326354 0.280058 -0.080203
-0.288654 0.451359 0.251327
-0.234191 0.439607 0.272794
-0.246394 0.440029 0.275941
0.337750 0.191883 -0.104789
0.329834 0.215575 -0.089511
-0.055106 -0.139422 -0.434599
-0.347651 -0.223797 0.321839
-0.332718 -0.217544 0.312007
0.245257 -0.249451 0.055299
0.242367 -0.234267 0.052149
0.211791 0.369707 -0.042076
0.230692 0.371365 -0.048149
0.336777 -0.274155 -0.102395
0.329905 -0.271385 -0.081247
0.334103 -0.286534 -0.103387
-0.294068 -0.004645 -0.423585
0.287076 -0.179855 -0.017765
0.307015 -0.162092 -0.042657
0.305630 -0.153163 -0.028268
-0.034584 0.398341 0.018088
0.336593 0.183348 -0.170344
0.337490 0.151385 -0.159621
0.067535 0.194953 0.042581
0.097136 0.194663 0.065027
0.099495 0.185646 0.051721
0.337980 0.082131 -0.107656
0.346505 0.073134 -0.111001
-0.034789 0.313910 -0.423444
0.309018 0.352064 -0.038025
0.311395 0.348669 -0.062955
0.316540 0.384891 -0.054323
0.321774 0.261617 -0.107954
0.337365 0.247705 -0.105288
0.314549 0.242305 -0.098902
0.239912 -0.357244 -0.089977
0.335347 -0.171378 -0.144773
0.330667 -0.175812 -0.153551
-0.312834 0.118171 -0.426799
0.324908 0.134335 -0.177344
0.337426 0.142127 -0.158671
-0.006350 0.203285 0.054225
-0.011801 0.175420 0.040447
-0.012440 0.198251 0.021918
0.346648 0.067307 -0.126581
0.335741 0.080975 -0.153379
0.103079 -0.371653 0.037448
0.116265 -0.368626 0.039240
0.333324 -0.274267 -0.137190
0.335635 -0.282999 -0.135857
-0.024596 0.196426 0.034040
-0.046258 0.195361 0.022692
0.331496 -0.287032 -0.146371
0.322780 -0.276579 -0.160449
0.240610 0.221218 -0.097363
0.231066 0.227861 -0.093807
0.254276 0.225788 -0.115904
-0.098007 0.191326 0.115566
0.241358 -0.166609 -0.197853
0.236360 -0.165964 -0.200666
-0.084074 0.228821 -0.015016
-0.096528 0.224749 -0.027979
-0.095331 0.236699 -0.023692
-0.328547 -0.087508 -0.376146
-0.333951 -0.085535 -0.369310
0.164333 -0.036885 -0.404265
0.130572 -0.022507 -0.417657
0.157720 -0.026110 -0.416097
-0.125752 0.317545 0.277878
-0.151350 0.289818 0.267513
-0.138410 -0.409750 0.413073
-0.151353 -0.404829 0.425044
-0.167586 -0.406365 0.447472
0.204764 -0.255301 0.083539
-0.247709 0.236289 0.413974
-0.235062 0.210058 0.425995
-0.233148 0.221086 0.412470
-0.307731 -0.444892 -0.344112
-0.127362 -0.410660 0.416430
-0.144857 0.225731 -0.130376
-0.134992 0.213403 -0.142487
-0.148777 0.217971 -0.117766
-0.312040 -0.209408 -0.407507
-0.306673 -0.220989 -0.424213
-0.257349 -0.236879 -0.422935
-0.267178 -0.218034 -0.411589
-0.136853 0.217803 -0.143774
-0.130233 0.227228 -0.167790
-0.005742 0.369756 -0.444744
-0.016158 0.384095 -0.419160
0.195199 -0.104630 0.071579
0.181779 -0.084552 0.097996
-0.181158 0.430426 0.391801
0.149778 0.267072 0.113106
-0.268842 -0.214089 -0.418797
-0.259022 -0.203879 -0.438446
-0.263631 -0.193755 -0.423969
0.058695 -0.417170 0.201783
0.105768 0.361222 0.045571
0.129311 0.367326 0.034906
-0.215689 0.091315 -0.405547
-0.244276 0.095519 -0.424234
-0.246128 0.116055 -0.428887
-0.260469 0.124457 -0.435720
-0.339619 -0.001987 -0.057946
-0.332600 -0.005712 -0.084981
0.216927 -0.399446 -0.260992
0.206356 -0.397852 -0.264944
0.209457 -0.412414 -0.244599
-0.018995 0.332039 -0.423631
-0.208475 0.092457 -0.424164
-0.197718 0.126057 -0.423237
-0.198143 0.073108 -0.426910
0.156348 0.416159 -0.312383
0.157108 0.391218 -0.316643
0.323672 -0.165973 -0.059146
0.303021 -0.167277 -0.052609
0.224712 -0.249516 0.088980
0.179499 -0.266379 0.089704
-0.067617 0.208434 -0.288305
-0.051703 0.221669 -0.300830
-0.058235 0.221639 -0.293082
-0.185857 0.130830 -0.425009
-0.028376 0.221367 -0.319539
-0.125896 0.305816 -0.426374
-0.124278 0.301242 -0.434322
-0.108949 0.288738 -0.415733
0.231686 0.205262 -0.087972
0.236023 0.216599 -0.075612
0.302010 -0.079167 -0.032602
0.317503 -0.235661 -0.088774
0.322442 -0.204392 -0.088083
0.316754 -0.207562 -0.073925
-0.333897 0.312209 -0.294792
-0.141421 0.300546 0.309115
-0.120037 0.299275 0.305090
-0.142830 0.302514 0.307186
0.186996 0.090266 -0.004229
-0.023997 0.079654 -0.423904
0.046225 0.181265 -0.340303
0.069140 0.173412 -0.330091
0.065416 0.181636 -0.335515
0.227550 -0.238125 -0.071336
-0.292290 0.368691 -0.418837
-0.296692 0.360744 -0.417011
-0.296554 0.358703 -0.431763
-0.291677 0.333825 -0.426507
0.101642 0.184031 -0.333880
-0.269265 0.325669 -0.422457
-0.255879 0.328218 -0.431967
-0.267412 0.328203 -0.413085
0.228683 0.146022 -0.057541
0.244951 0.128772 -0.074566
0.220430 0.113213 -0.078069
0.287170 -0.090372 -0.019600
0.224803 0.119904 -0.050010
0.226792 0.109016 -0.038959
0.141556 0.191550 -0.339556
0.134402 0.180071 -0.303856
-0.172927 0.329709 -0.415021
-0.342158 -0.043683 0.184785
-0.318954 -0.043368 0.191992
-0.325259 -0.290041 0.099744
-0.341925 -0.268549 0.101281
0.153752 0.163116 -0.329373
0.156168 0.174699 -0.309992
0.257386 -0.239144 -0.085338
0.235623 -0.206983 -0.106166
-0.060407 0.442554 0.063369
0.118640 0.324419 -0.312401
0.111655 0.305488 -0.319290
0.126722 0.304490 -0.348246
0.175231 0.183947 -0.280280
0.220031 -0.125544 -0.072470
0.228465 0.196210 -0.241976
0.231299 0.203683 -0.248416
0.207660 0.210964 -0.249219
-0.260054 0.228546 -0.426889
-0.270062 0.213738 -0.421807
-0.258776 0.214038 -0.422743
-0.252192 0.209515 -0.413670
-0.178031 0.148737 0.434186
0.251878 -0.135433 -0.128138
0.019118 -0.294587 0.193768
0.239191 0.170130 -0.202945
0.249184 0.180715 -0.193971
0.253767 0.179649 -0.178166
0.000197 -0.381881 -0.418173
0.259232 -0.125366 -0.140576
0.244186 -0.111372 -0.142662
0.235462 -0.228428 -0.109510
0.243783 -0.228458 -0.131772
0.237578 0.177314 -0.149632
0.239940 -0.131678 -0.177818
0.244136 -0.156229 -0.187122
0.248621 -0.150551 -0.163656
-0.126031 0.440866 -0.374008
0.126461 -0.093176 -0.400466
-0.174793 0.448134 0.302769
-0.176363 0.449491 0.320432
-0.176219 0.443296 0.295045
-0.110734 0.085003 -0.424068
-0.112134 0.083340 -0.418556
0.265444 0.192905 -0.117679
0.243774 0.187578 -0.107144
0.250452 -0.090027 -0.210859
0.251186 -0.113399 -0.209110
0.243054 -0.098021 -0.195850
-0.039284 0.173528 -0.434802
-0.046428 0.143681 -0.433839
-0.042970 0.179658 -0.412064
-0.188805 0.154246 0.417208
-0.185011 0.147655 0.421276
-0.292092 -0.463005 0.272677
-0.291169 -0.438606 0.293103
-0.303056 -0.443797 0.277019
0.245921 -0.134728 -0.188454
0.235750 -0.124345 -0.206604
0.336542 0.219602 -0.124117
0.051585 -0.071189 0.129021
-0.185278 0.127475 0.414827
0.167842 0.173749 0.005761
0.158077 0.151285 0.021228
0.154355 0.156928 0.029075
0.237029 -0.126636 -0.225004
0.227862 -0.140422 -0.204600
-0.074292 0.194301 -0.431786
0.244155 -0.095459 -0.201507
0.216908 -0.094888 -0.220679
-0.073137 0.225531 -0.410929
0.230259 -0.227833 -0.240221
-0.124753 0.206603 -0.428008
0.240882 -0.081980 -0.216764
0.241331 -0.115979 -0.231053
-0.191441 -0.016090 -0.406319
-0.214993 0.000061 -0.432556
0.347163 0.229855 -0.116912
-0.198206 -0.029239 -0.428020
-0.190923 -0.018691 -0.422129
-0.176054 -0.001664 -0.417596
-0.264671 -0.453012 -0.103152
-0.259378 -0.448014 -0.126559
-0.178308 0.036953 -0.423906
-0.161402 0.043271 -0.424677
-0.207964 0.088886 -0.424901
-0.216055 0.097240 -0.422320
0.235223 0.084669 -0.230052
0.235794 0.089138 -0.225039
-0.265726 -0.448576 -0.091037
-0.298195 0.445168 -0.098100
-0.290908 0.454756 -0.118157
0.211678 -0.056786 -0.247710
0.201988 -0.046919 -0.260645
0.228402 -0.039130 -0.231647
-0.046564 -0.424194 0.024808
-0.294561 0.449490 0.112677
0.194207 -0.147313 -0.277747
0.188295 -0.149116 -0.302370
0.190594 -0.157142 -0.285818
-0.245615 -0.057815 -0.424204
-0.240042 -0.074051 -0.434942
0.128403 -0.414080 0.119752
-0.219793 -0.090788 -0.430222
0.207096 -0.197251 -0.265489
0.193944 -0.184768 -0.279070
-0.142014 0.300816 -0.419434
-0.096103 -0.025416 -0.409389
-0.109669 -0.026484 -0.421661
-0.120119 -0.011089 -0.419274
-0.108529 -0.035213 -0.422527
-0.289648 -0.130001 0.409312
-0.153050 -0.096799 -0.440800
-0.174710 -0.081475 -0.417838
0.123662 -0.395039 -0.325756
0.116814 -0.361564 -0.309517
-0.091588 -0.278468 -0.406164
-0.028175 0.064109 -0.402097
0.081808 0.340015 -0.428928
0.054348 0.357249 -0.434029
-0.174166 0.104302 0.432278
-0.172359 0.125830 0.425205
0.002304 -0.411591 0.048813
-0.323248 -0.404670 0.416655
-0.321485 -0.406006 0.426902
-0.242714 0.454412 -0.186504
-0.250578 0.445092 -0.189803
-0.251078 0.454525 -0.391036
0.121460 0.115511 -0.315905
-0.153976 0.445347 -0.279854
-0.068453 -0.082018 0.137181
-0.084337 -0.089708 0.125148
0.183040 -0.110726 -0.286624
0.192625 -0.117284 -0.278646
0.173595 -0.075965 -0.303213
0.166289 -0.074826 -0.308220
-0.071003 0.211288 -0.000317
-0.300978 -0.313314 0.356963
-0.291839 -0.309463 0.355004
0.160451 -0.229059 -0.300547
0.060137 0.300775 -0.414177
0.095021 0.312296 -0.420315
-0.332352 -0.258206 -0.384718
-0.088402 -0.236500 0.248883
-0.078275 -0.231816 0.248099
0.099873 -0.323749 -0.419293
0.077579 -0.318425 -0.431294
0.115220 -0.306278 -0.425578
-0.103194 -0.328586 -0.418180
-0.105701 -0.312334 -0.402073
-0.337141 0.184869 0.269917
-0.333076 0.158594 0.256891
-0.082483 -0.347108 -0.436478
-0.005765 0.170259 0.130484
0.011815 0.195290 0.134822
-0.022724 0.190146 0.122279
0.110931 -0.385254 -0.409756
0.129677 -0.408327 -0.421263
0.089355 -0.405924 -0.423116
0.172737 -0.125197 -0.291681
0.112383 -0.061904 -0.336781
0.144036 -0.052670 -0.319137
0.122193 -0.051073 -0.335506
0.319026 0.190431 -0.207423
0.326734 -0.262051 -0.148923
-0.040558 -0.260182 -0.427130
-0.044908 -0.254684 -0.420673
0.162098 -0.212727 -0.316274
0.298957 0.220162 -0.260142
0.289502 0.236489 -0.254214
0.329731 -0.277798 -0.227701
0.096889 -0.142423 -0.332461
0.114143 -0.156391 -0.313819
0.136737 -0.154115 -0.311902
0.087565 0.135202 -0.325184
0.294893 -0.281896 -0.267202
0.292436 -0.274427 -0.297835
0.304994 -0.257132 -0.290967
-0.008894 -0.243698 -0.425306
-0.023538 -0.243619 -0.430668
-0.131630 -0.315693 -0.437701
0.102916 -0.072545 -0.333710
0.098068 -0.080066 -0.332392
0.110073 -0.255938 -0.325221
0.107290 -0.251379 -0.314982
-0.278002 0.435370 -0.100648
-0.275822 0.438884 -0.265759
-0.278053 0.445264 -0.252646
-0.320707 -0.286492 -0.356976
-0.313556 -0.300346 -0.354788
-0.334456 0.118350 0.211642
0.063848 -0.043894 -0.326311
0.053768 -0.032824 -0.343836
0.061793 -0.058633 -0.329301
-0.352278 -0.126549 0.398211
0.073316 -0.238294 -0.334506
0.008573 0.140967 -0.331481
0.185853 0.387297 -0.386879
0.193381 0.408033 -0.389976
-0.335209 0.361622 0.141482
-0.330995 0.337310 0.153761
0.060532 -0.079554 -0.325918
0.047320 -0.076595 -0.331089
0.055734 -0.071171 -0.327419
0.047806 0.195172 -0.406929
0.058295 -0.245898 -0.340484
0.199168 -0.028847 -0.236990
0.210696 -0.030574 -0.251612
-0.314630 0.360859 -0.062047
0.010444 0.196247 -0.423364
0.024204 -0.273547 -0.436087
0.037237 -0.259543 -0.431310
0.036800 -0.266179 -0.427277
0.050720 -0.168394 -0.338736
-0.013620 -0.068768 -0.334642
-0.011889 -0.053111 -0.331955
-0.024058 -0.062291 -0.322908
-0.137461 0.451535 -0.342574
0.007019 -0.211893 -0.329310
-0.013938 -0.174070 -0.308410
-0.026497 -0.189661 -0.320929
-0.026558 -0.213737 -0.328799
0.107426 0.155628 -0.418661
0.115623 0.135203 -0.421403
-0.328391 -0.170329 0.173368
-0.344800 -0.176624 0.156366
-0.015980 0.362038 0.045023
-0.007141 0.358258 0.037708
-0.333335 -0.329223 -0.347852
0.241070 -0.319686 -0.123284
0.260485 -0.321783 -0.112681
0.312102 0.214396 -0.032707
0.285568 0.218944 -0.017577
-0.105974 0.448653 -0.352104
-0.027068 -0.362011 0.016800
-0.029085 -0.355463 0.030274
-0.025224 -0.378566 0.037347
0.231521 -0.068909 -0.233962
-0.334586 -0.318637 -0.318979
-0.318767 -0.305898 -0.306995
-0.334506 -0.249462 -0.339949
-0.322733 -0.237539 -0.335961
-0.040397 -0.191394 -0.418214
-0.002176 -0.184390 -0.419184
-0.026870 -0.204454 -0.423914
-0.029875 -0.232617 -0.310910
-0.065224 -0.158014 -0.283132
-0.093334 -0.163031 -0.279309
-0.074781 -0.171674 -0.299500
-0.344469 -0.303287 -0.310422
-0.335324 -0.291072 -0.292236
-0.337816 -0.309193 -0.295971
-0.207208 -0.154966 0.420672
-0.150519 -0.167158 0.438829
-0.334828 -0.196620 0.148997
0.052960 -0.210398 0.308630
0.282339 -0.134538 -0.291410
0.201449 0.260848 0.080665
0.207085 0.255261 0.096635
-0.338394 0.308329 -0.091089
-0.321977 0.254825 -0.143252
-0.332431 0.279206 -0.139991
-0.126615 0.433463 0.048490
0.277725 0.394369 -0.304189
0.257202 0.417322 -0.296794
-0.338246 0.264980 -0.084063
0.235368 0.415523 -0.221145
-0.335432 -0.010652 -0.177265
-0.330632 -0.020995 -0.215005
-0.336517 -0.390932 -0.178855
-0.323797 -0.402827 -0.206038
-0.321644 -0.398441 -0.184873
-0.328527 -0.054299 -0.191518
-0.102457 -0.133958 -0.265537
-0.104188 -0.126615 -0.234763
-0.053939 -0.179921 -0.418507
-0.334467 -0.102540 -0.128083
-0.334197 -0.197225 0.200764
-0.315390 -0.207894 0.163502
-0.321226 0.218427 -0.047522
-0.341337 0.229799 -0.045501
-0.345982 0.229856 -0.039591
0.188269 0.377865 -0.009198
-0.315914 -0.095303 -0.153198
-0.329328 -0.130108 -0.133755
-0.353124 -0.117594 0.042646
-0.296064 -0.370893 0.435401
-0.306010 0.111522 0.425004
-0.331006 -0.107177 0.061120
-0.140516 0.436479 -0.263240
-0.296299 0.085342 0.423754
-0.099634 -0.243914 0.422706
-0.119006 -0.227913 0.429589
-0.111517 -0.219606 0.417826
-0.128719 -0.218720 0.418932
-0.127849 -0.205987 0.418795
-0.109152 -0.135018 -0.235744
-0.132105 -0.132564 -0.236273
-0.127856 -0.130465 -0.231711
0.329892 0.395769 -0.231455
0.308746 0.392503 -0.251894
-0.286054 -0.443080 -0.142569
-0.284307 -0.439900 -0.148440
-0.326190 -0.250901 0.113051
-0.320625 -0.254417 0.122895
-0.344155 -0.249879 0.128698
-0.323125 -0.206919 0.074414
-0.332338 -0.209637 0.071202
0.063638 -0.251658 0.385844
0.055291 -0.240211 0.396360
0.343675 -0.109245 -0.202288
-0.332823 -0.200554 0.090907
-0.337260 -0.172714 0.065048
0.167116 -0.269740 -0.297025
-0.109998 -0.245534 -0.253388
-0.087199 -0.269505 -0.251781
-0.135874 -0.126725 0.167165
-0.186136 -0.308329 -0.422967
-0.219666 -0.311540 -0.432565
-0.132535 -0.029685 0.319010
-0.156017 -0.002013 0.353130
-0.189556 -0.403572 -0.428675
-0.190645 -0.399828 -0.426999
-0.330668 -0.323990 0.123939
-0.334584 -0.310284 0.125678
-0.320087 -0.324434 0.113329
-0.330808 0.405657 0.262238
-0.325455 0.386767 0.280091
-0.340501 0.264958 -0.076780
-0.332196 0.033128 0.091135
-0.334747 0.008123 0.066853
-0.321249 0.005626 0.106380
-0.125486 -0.116431 -0.205102
-0.336656 0.301368 0.359749
-0.330877 0.274189 0.386444
-0.329034 0.009050 0.066546
-0.326595 0.009181 0.073828
-0.346464 -0.008928 0.090036
-0.129941 -0.156406 -0.199472
-0.129767 -0.169727 -0.183363
-0.109579 -0.152670 -0.195491
-0.034837 -0.372843 -0.308688
-0.047961 -0.387480 -0.298527
-0.151781 -0.359955 -0.426321
-0.331870 0.029615 0.071691
-0.343615 0.032777 0.107143
-0.289068 -0.441054 0.339843
0.162967 0.327878 -0.294331
0.148511 0.294200 -0.308115
0.168509 0.306027 -0.310679
-0.129149 -0.455661 0.356802
-0.336177 -0.182670 0.346784
-0.322532 0.049353 0.147990
-0.335163 0.037104 0.148708
0.226520 0.276579 0.087999
0.210594 0.273615 0.065434
-0.131051 -0.117582 -0.191252
-0.125473 -0.119776 -0.202719
-0.124469 -0.107775 -0.189002
0.156129 -0.417092 -0.315293
0.137932 -0.395560 -0.313831
-0.138738 -0.118609 -0.165472
-0.135746 -0.156055 -0.175999
-0.118304 -0.125612 -0.145514
0.339817 -0.114708 -0.159385
0.316590 -0.215685 -0.207877
0.326616 -0.231874 -0.211518
0.325011 -0.239004 -0.228171
-0.142521 0.443083 -0.055110
-0.322421 0.299893 -0.205561
-0.320619 0.286092 -0.215531
-0.326317 0.284405 -0.191085
-0.325553 -0.016016 0.098707
-0.339574 -0.045300 0.091973
0.052262 -0.380967 0.041041
-0.358460 0.110540 0.044552
-0.323673 0.126407 0.048647
-0.075869 -0.374703 -0.287222
-0.082620 -0.398040 -0.301518
-0.317904 0.062820 0.031223
-0.333363 0.055227 0.046767
-0.148582 -0.167594 -0.117757
-0.121468 -0.172489 -0.103164
-0.132508 -0.174756 -0.117088
-0.326982 0.271929 -0.207357
-0.135422 -0.141790 -0.144239
-0.154490 -0.122936 -0.134678
-0.138410 -0.129750 -0.144188
-0.137363 -0.054178 0.365112
-0.126557 -0.037610 0.379007
-0.328180 0.337625 0.061408
-0.324262 0.342231 0.076339
-0.346419 0.362099 0.053890
0.336938 0.019448 -0.161635
0.323416 0.029955 -0.144359
0.000277 -0.407175 0.040436
-0.011625 -0.381712 0.040592
-0.140920 -0.064400 -0.139381
-0.129626 -0.028558 -0.138441
-0.150880 -0.026997 -0.121430
-0.125823 -0.267831 -0.105161
-0.138587 -0.118109 -0.102271
-0.127004 -0.143316 -0.100132
-0.344891 0.365555 0.030660
-0.330635 0.334812 0.021454
-0.327443 0.338577 0.055765
0.125320 -0.057265 -0.419096
-0.134452 -0.030127 -0.098473
-0.134247 -0.176050 -0.079585
-0.118302 -0.144423 -0.101580
-0.114738 -0.265528 -0.079782
-0.133153 -0.283097 -0.094862
-0.122724 -0.208464 -0.090057
-0.128474 -0.175030 -0.088421
-0.129321 -0.195989 -0.078896
-0.329057 0.301757 0.105278
-0.332450 0.290860 0.135925
-0.122251 -0.192330 -0.064609
-0.126389 -0.157055 -0.079751
-0.141465 -0.146083 -0.060146
-0.116951 -0.149611 -0.043466
-0.262318 0.466792 0.096658
-0.266299 0.442328 0.115346
-0.120721 -0.142743 -0.040046
-0.096123 -0.159744 -0.042768
-0.355613 0.099328 -0.380602
-0.322461 0.115878 -0.371368
-0.266011 0.440456 0.051945
-0.244350 0.450606 0.036724
-0.100637 -0.184626 -0.051391
-0.102853 -0.176420 -0.046544
-0.094064 -0.127926 -0.010885
-0.115095 0.200140 -0.037779
-0.104029 0.214941 -0.015239
0.112273 0.277043 -0.332423
0.104818 0.267751 -0.321647
0.091044 0.285428 -0.332878
-0.332820 0.409499 0.281226
-0.081433 0.289391 -0.017445
-0.329198 0.040325 0.224404
-0.118379 -0.381705 -0.257195
-0.341517 0.069360 0.200210
-0.023014 -0.168459 0.315584
-0.025042 -0.175995 0.317667
-0.027497 -0.163545 0.290954
-0.318646 -0.028405 0.124605
-0.316493 -0.044374 0.153905
-0.068407 -0.084336 0.000098
-0.062418 -0.072940 0.007933
-0.292955 0.444085 -0.364448
-0.080719 -0.126940 -0.015560
-0.051532 -0.143100 0.018142
-0.080565 -0.178974 0.012262
-0.076103 -0.165132 -0.019462
-0.060812 -0.162571 0.004095
-0.041655 -0.128492 0.003809
-0.059263 -0.171162 0.013085
-0.272116 0.460034 0.107073
-0.200946 0.443053 0.063653
0.181831 -0.355666 0.107733
0.220002 -0.334057 0.103121
-0.065752 0.135859 0.005853
-0.056063 -0.163615 0.023785
0.136341 0.400894 0.091950
-0.046342 -0.126465 0.026950
-0.322385 0.301654 0.069571
-0.342135 0.286994 0.054532
-0.328403 0.260078 -0.009408
-0.308745 -0.322778 -0.411964
-0.306900 -0.302484 -0.431588
-0.297590 -0.305594 -0.434108
-0.232040 0.437286 -0.014751
-0.245276 -0.354851 0.422385
-0.252391 -0.366481 0.429784
-0.039426 -0.144673 0.036479
-0.034267 -0.136054 0.015717
-0.021574 -0.153018 0.038275
0.001037 -0.060766 0.043897
-0.010103 -0.075533 0.046945
-0.003588 -0.060225 0.026719
-0.015213 -0.249405 0.038338
-0.024368 -0.238723 0.039485
-0.007676 -0.251241 0.054171
0.028143 -0.155561 0.039278
0.050285 -0.178275 0.051056
0.002742 -0.181488 0.049182
0.013684 0.126291 0.036223
-0.002493 0.102636 0.040819
0.004621 -0.126558 0.033634
-0.264349 -0.353637 0.434326
-0.275040 -0.324482 0.417293
-0.296190 -0.301457 0.430799
-0.292950 -0.309083 0.427609
-0.250147 -0.444816 0.101323
-0.277196 -0.441120 0.104411
-0.305731 -0.409869 0.434062
-0.297824 -0.397799 0.430075
-0.258149 -0.423103 0.423433
-0.270731 -0.401184 0.426443
0.057296 -0.147722 0.054022
0.069512 -0.148793 0.057423
-0.257652 -0.415956 0.421524
0.177767 0.265966 -0.011957
-0.193167 -0.431028 0.239874
-0.161304 -0.437651 0.226553
0.325055 0.341428 -0.114245
0.048852 -0.250129 0.045779
-0.169037 0.438267 -0.204795
0.059765 0.129442 0.035680
-0.175777 0.382320 0.427215
-0.161648 0.406242 0.413751
-0.198830 0.423145 0.421778
0.228929 -0.407467 -0.118606
0.127672 0.246526 -0.418154
0.145794 0.273145 -0.419690
-0.291287 0.433122 0.080806
-0.291190 0.448224 0.093341
-0.278872 0.436389 0.075200
0.055220 0.127021 0.116416
0.069860 0.121890 0.131364
0.213121 0.282634 -0.030715
0.191222 0.260380 -0.005677
-0.184158 0.180967 0.413092
-0.173129 0.206342 0.439734
-0.220982 -0.302718 0.431472
-0.286028 -0.381121 0.256340
-0.206521 -0.248358 0.421985
-0.331470 0.129822 0.381191
0.121387 -0.155524 0.054528
0.110049 -0.148405 0.044976
0.215352 0.280526 -0.025578
-0.200414 -0.233263 0.421593
-0.177549 0.436595 -0.214323
-0.101063 -0.323987 0.421700
0.203643 -0.350913 -0.248883
0.207992 -0.365179 -0.268448
0.060354 -0.074553 -0.334728
0.060974 -0.085005 -0.343935
0.062991 -0.085058 -0.325890
0.148283 -0.111314 0.007271
0.165389 -0.117155 0.023363
0.184360 -0.115603 0.003775
0.166917 -0.136426 -0.008156
0.210259 0.288739 -0.018577
0.147968 0.150592 0.016612
-0.275541 -0.286195 -0.423724
-0.270837 -0.312126 -0.417133
0.253267 0.162329 -0.085634
0.254002 0.164090 -0.093519
0.242751 0.113380 -0.071024
0.251352 0.157584 -0.092731
-0.091355 -0.436516 0.423346
-0.079994 0.157345 -0.002188
-0.221029 -0.431434 -0.156139
-0.234384 -0.429713 -0.153304
-0.097000 -0.164876 -0.020072
-0.089446 -0.163069 -0.012845
-0.084545 -0.140389 -0.017523
0.183406 -0.417761 0.107428
0.175485 -0.399619 0.121323
0.241864 -0.134747 -0.073530
0.243862 -0.111783 -0.065916
0.208445 -0.046219 -0.046452
0.232832 -0.070502 -0.050744
0.242314 -0.087414 -0.065722
-0.344763 -0.241235 -0.336204
-0.038047 -0.331806 0.206878
-0.045396 -0.354766 0.202027
0.254022 -0.279947 -0.150032
0.012641 -0.446527 0.265001
-0.005446 -0.432825 0.271632
0.249929 -0.204519 0.040994
0.246932 -0.143854 0.051181
-0.040470 0.156689 0.002342
-0.042520 0.167871 0.031769
-0.044682 0.138448 0.024023
-0.070438 -0.442665 0.255035
-0.081114 -0.458445 0.260425
-0.075259 -0.441540 0.273954
0.258317 -0.279992 0.046137
-0.025374 0.266099 0.025779
-0.020565 0.278803 0.023617
-0.022165 0.276070 0.025661
-0.259695 0.446822 0.022132
-0.255269 0.437951 0.043073
-0.069867 -0.288261 0.187253
-0.173911 0.441927 0.054525
0.033884 0.170978 0.136988
-0.121561 -0.396372 -0.244484
-0.111507 -0.375474 -0.216437
0.044852 0.198992 0.142934
0.009057 0.196173 0.141153
-0.000467 0.225310 0.146430
-0.005980 0.216139 0.131657
0.049765 0.017655 -0.337622
-0.020275 0.205787 0.138150
-0.004039 0.169512 0.129868
-0.015411 0.199308 0.123471
-0.016868 0.159769 0.133988
-0.042273 0.154687 0.132877
-0.030803 0.157403 0.126722
-0.033116 0.162185 0.136221
-0.273497 0.416222 0.424282
-0.238853 0.406034 0.427972
-0.011970 0.221027 0.150820
-0.013198 0.246736 0.140839
-0.020864 0.224499 0.136343
-0.102330 -0.093969 0.118840
-0.119097 -0.100517 0.133007
0.011673 -0.318952 0.423531
0.009452 -0.321004 0.422814
-0.123766 -0.084156 0.131113
0.065769 -0.198359 0.301900
0.039195 -0.214695 0.312879
0.319059 0.030479 -0.111493
-0.337748 -0.002059 0.310950
-0.333206 -0.015619 0.328821
0.230144 0.283379 -0.223527
0.230365 0.294952 -0.228834
0.218584 0.301346 -0.245716
-0.041096 -0.230212 0.272111
-0.043887 -0.239764 0.242944
-0.047815 -0.218562 0.260822
-0.078810 -0.259064 0.429591
-0.344142 -0.036615 0.379286
-0.333105 -0.026980 0.381489
0.216297 -0.235477 -0.236225
-0.088427 -0.292411 0.424015
-0.065692 -0.322392 0.414972
0.018720 -0.227710 0.417489
0.021968 -0.210286 0.433755
-0.000559 -0.240224 0.433561
-0.058648 -0.218542 0.299217
-0.332900 0.057242 0.352858
-0.336708 0.000513 0.344584
-0.345540 -0.001890 0.336730
-0.091799 -0.445897 0.027661
0.208309 0.288885 -0.249998
0.199417 0.292982 -0.249610
-0.194932 0.272989 -0.424450
-0.016148 -0.242107 0.428936
-0.013947 -0.235662 0.415748
-0.296640 -0.228451 0.326640
0.023879 -0.213278 0.411572
0.019241 -0.227664 0.431845
-0.340962 0.268567 0.358963
-0.329014 0.275626 0.353592
-0.326873 0.255589 0.355049
-0.312328 0.243327 0.304616
0.026972 -0.346333 0.423931
-0.010021 0.254770 0.125304
0.006985 0.260183 0.127326
0.130200 0.272235 -0.326383
0.072501 -0.407271 0.127286
0.078348 -0.414390 0.127330
-0.326199 0.191306 0.276608
0.216520 0.311313 -0.280394
0.194122 0.324246 -0.271823
-0.333100 0.214459 0.301065
-0.342214 0.206669 0.306211
-0.318097 0.272979 0.334809
-0.337748 0.257579 0.310203
-0.335937 0.242765 0.318358
0.200521 0.308311 -0.268886
-0.026922 -0.286454 0.423992
-0.045663 -0.266853 0.424801
0.007834 -0.149965 0.151216
-0.083482 -0.242409 0.425388
-0.344837 0.192710 0.290717
0.219838 -0.274749 -0.248015
0.218604 -0.284654 -0.247375
-0.346543 -0.296018 -0.324412
-0.350961 -0.296864 -0.316235
0.239712 -0.414318 -0.234242
-0.135145 -0.107281 0.222458
-0.142165 -0.068529 0.237717
-0.345308 0.348430 0.338058
-0.346424 0.369650 0.307352
0.053074 0.334324 -0.429014
-0.065589 -0.381453 -0.301858
0.190074 0.309172 -0.280901
0.177548 0.297063 -0.281063
0.244229 -0.351364 -0.219460
-0.149473 0.397045 0.329072
-0.150338 0.406194 0.329928
-0.137968 -0.397426 -0.203605
-0.135389 -0.368520 -0.208369
-0.312583 0.258841 -0.429868
0.039570 0.407166 -0.345820
0.004793 0.413587 -0.320504
-0.142646 0.016419 0.388330
-0.138537 0.015121 0.393085
-0.141170 0.013237 0.392353
-0.332866 -0.006197 0.412471
0.181508 0.411745 -0.386803
-0.107238 -0.288016 -0.251230
-0.115610 -0.310775 -0.239228
0.173309 0.312894 -0.294549
-0.139378 0.075750 0.255781
0.258556 -0.417698 0.070536
0.233427 -0.396323 0.056632
0.248485 -0.404881 0.059751
-0.149700 0.060266 0.288476
-0.138496 0.075145 0.315337
-0.128605 0.060399 0.302899
0.027586 0.216759 0.056344
0.011230 0.193452 0.030472
0.002763 0.205449 0.053808
-0.151324 0.046151 0.284777
-0.147242 0.050830 0.283183
0.345220 -0.331617 -0.130114
0.334283 -0.343407 -0.138520
-0.085922 0.080101 0.139120
-0.133816 0.126062 0.249817
-0.140552 0.089805 0.253345
-0.130491 0.118972 0.232809
0.126299 -0.367874 0.045520
0.148545 -0.188619 0.036298
0.103897 -0.169042 0.047222
-0.137314 0.131489 0.292334
-0.142338 0.110048 0.279539
-0.070493 -0.172359 0.313140
-0.086989 -0.153222 0.314023
-0.138932 -0.149562 0.238853
-0.080751 -0.172004 0.293407
0.145090 -0.281844 -0.319482
0.145434 -0.304473 -0.313783
-0.121905 -0.166156 0.306004
-0.068980 -0.168574 0.327078
0.325153 0.336803 -0.098833
-0.119505 -0.120060 0.266000
-0.079119 0.217992 0.137998
-0.029265 0.232698 0.138407
-0.053852 0.244627 0.137701
-0.099224 0.344968 -0.071741
-0.101254 0.327449 -0.048645
-0.115968 0.338478 -0.063451
0.052871 -0.191308 0.051768
0.053884 -0.188685 0.051989
0.051919 -0.192840 0.059403
-0.143767 0.351619 0.375764
-0.028023 0.318654 0.037155
-0.063581 0.289936 0.021557
-0.138087 0.004528 0.210217
-0.151113 -0.012071 0.203216
-0.144222 -0.048744 0.206239
-0.142353 -0.041598 0.229042
-0.129773 -0.060038 0.200183
-0.059037 0.045164 0.138817
-0.071158 0.020324 0.129664
-0.240870 0.455275 -0.135580
0.200976 -0.008194 0.089796
-0.205451 0.453665 -0.095506
0.002279 -0.158436 0.379718
-0.032024 -0.195687 0.043783
-0.030490 -0.181435 0.028816
-0.011262 -0.173547 0.036062
-0.000319 -0.454896 0.382813
0.341818 0.391567 -0.122924
0.332890 0.363739 -0.110210
0.334062 0.358472 -0.139492
0.123250 -0.287264 -0.335949
0.117776 -0.286744 -0.344093
-0.066949 -0.134096 0.148271
0.157966 -0.207354 0.102634
0.187814 -0.183978 0.111414
-0.132312 -0.133952 0.314661
-0.126385 -0.131974 0.296428
0.229863 -0.357772 0.080507
-0.258371 0.447169 0.063432
-0.270786 0.456704 0.069617
0.077902 0.276026 -0.337082
-0.323943 0.343759 0.227574
-0.150140 0.406008 -0.181064
-0.132730 0.411154 -0.182556
-0.341482 0.377964 0.235214
0.228425 -0.378719 -0.242985
-0.065846 0.204090 0.009673
-0.060210 0.213137 0.006851
-0.341042 0.337190 0.207942
-0.313799 0.357363 0.191160
-0.323141 0.363991 0.187878
-0.330225 0.294675 0.086178
0.127993 -0.324885 -0.335032
0.117821 -0.306738 -0.325130
-0.080866 -0.225027 -0.002533
-0.068260 -0.234280 0.001998
-0.072966 -0.221261 -0.003623
-0.310367 0.226561 0.038499
-0.346226 0.229743 0.063931
-0.322555 0.213883 0.125861
-0.334956 0.187927 0.146836
0.197406 0.024301 -0.381968
0.193837 0.015406 -0.383913
-0.110908 -0.394413 -0.062739
-0.354325 0.238149 0.100398
-0.316698 -0.407480 -0.315822
-0.333266 0.301193 -0.036979
-0.336999 0.277753 -0.038894
-0.322017 0.279105 -0.024729
0.002549 0.267163 -0.337213
-0.327509 0.299795 -0.011161
-0.337099 0.403798 -0.006443
-0.331611 -0.053984 0.363152
-0.325185 -0.057930 0.343104
-0.343045 -0.177658 0.316655
-0.342455 -0.159126 0.320044
-0.331596 0.399667 -0.048832
-0.327854 0.383950 -0.031495
-0.318873 -0.045470 0.392553
-0.333448 0.371044 -0.037771
-0.330224 0.213331 -0.004821
-0.344715 0.230301 -0.018223
-0.333550 -0.098621 0.100769
-0.325643 -0.234936 0.136345
-0.330954 -0.226805 0.151128
0.058186 0.276438 -0.320037
0.202484 0.031707 -0.385237
0.323154 0.395848 -0.138487
-0.321633 -0.010286 -0.373274
-0.334410 -0.005790 -0.378448
0.155219 -0.323351 0.119284
0.169085 -0.326535 0.128646
-0.329105 -0.046939 -0.110888
-0.334631 -0.066414 -0.127584
-0.136769 -0.214427 -0.152234
-0.141161 -0.229627 -0.175766
-0.144009 -0.205644 -0.172453
-0.326689 0.211080 -0.200277
-0.325485 0.135764 -0.196840
-0.320892 0.156440 -0.181618
-0.319743 -0.049642 -0.165375
-0.324154 0.104429 -0.164798
-0.344472 0.081390 -0.145420
-0.329472 0.040019 -0.185383
-0.332253 0.056860 -0.182258
-0.324933 0.024439 -0.213215
-0.138876 -0.187335 -0.204691
-0.140127 -0.187706 -0.195461
-0.323532 0.013641 -0.173781
-0.322771 -0.058413 0.377155
-0.162078 -0.018148 0.190038
0.082216 -0.368353 -0.341212
0.085890 -0.357329 -0.345052
-0.339139 0.138466 -0.169511
-0.334351 0.118423 -0.177588
-0.126659 -0.156580 -0.234787
-0.122834 -0.186116 -0.216187
-0.119178 -0.179049 -0.235387
-0.294439 0.088466 -0.417159
-0.306519 0.093801 -0.418655
-0.325732 0.106342 -0.228244
-0.340822 0.148083 -0.217026
-0.347882 0.115637 -0.197563
