-0.064568 0.117895 0.138029
0.297172 0.296717 -0.009182
-0.058642 0.125654 0.136557
-0.082266 0.128746 0.136945
0.291180 0.187029 -0.000957
0.287997 0.165179 0.003621
0.072391 -0.309862 0.146642
0.295117 0.051519 -0.006552
0.296424 0.047055 -0.009600
0.311894 0.052416 -0.038439
0.293252 0.136121 -0.005688
0.306166 0.145869 -0.030332
0.217198 -0.288583 -0.034621
0.214725 -0.300350 -0.028960
0.071744 -0.328658 0.146887
0.168870 0.094215 -0.398152
-0.338320 -0.130583 -0.369578
-0.335597 -0.125316 -0.388506
0.199910 0.437853 -0.339957
0.205708 0.435942 -0.348499
0.241838 -0.414128 -0.351185
0.249137 -0.422130 -0.341395
-0.241137 0.048815 0.422853
-0.219408 0.025585 0.424256
0.202625 -0.290714 0.089885
0.197560 -0.310648 0.095476
-0.340471 -0.136397 -0.359812
-0.337669 -0.115304 -0.331729
-0.182661 -0.423461 -0.415692
-0.044734 0.113954 -0.424506
0.237566 0.196657 0.063855
-0.118345 0.305875 -0.061386
0.218764 -0.089379 -0.250409
0.255174 0.175006 0.044510
0.252416 0.085220 0.050105
-0.255389 -0.416196 0.423942
-0.066629 0.381729 -0.429521
-0.074147 0.361336 -0.428744
0.266620 -0.296701 0.029958
0.262918 -0.286955 0.032983
0.267452 -0.276017 0.026958
0.249878 0.173391 0.052350
0.258114 0.390222 0.046390
0.264859 0.414001 0.033931
-0.178041 0.445501 0.013172
0.237326 0.081396 0.063824
0.257745 0.092044 0.044261
0.256703 0.146883 0.045642
0.267041 0.153271 0.033755
0.054553 -0.191336 0.158579
0.270777 0.285629 0.028710
0.274785 0.291196 0.025818
-0.158198 0.446402 -0.383419
0.306558 -0.296009 -0.025583
0.303237 -0.309531 -0.016421
0.308548 -0.288274 -0.030213
0.250966 0.294454 0.052665
0.273894 0.157201 0.027795
0.277411 0.187259 0.020424
0.258722 0.060899 0.042958
0.276753 0.066161 0.023170
0.282933 0.157977 0.012905
0.275657 -0.242877 0.018762
0.292613 -0.293868 -0.002498
0.299720 -0.160934 -0.016192
0.304350 -0.164719 -0.025129
0.073215 0.127756 0.132093
-0.198865 -0.445659 0.293425
-0.189647 -0.446214 0.299638
-0.184386 -0.445608 0.325433
-0.051978 -0.432497 0.419867
-0.223903 0.106468 0.423703
0.074925 -0.151120 0.127007
-0.026201 -0.446963 0.332219
-0.025359 -0.446900 0.329317
-0.332999 0.222126 -0.291993
-0.170296 -0.412589 0.425806
-0.162833 -0.405438 0.425714
0.006908 0.256214 -0.422443
-0.009022 0.229530 -0.425660
-0.014015 0.262812 -0.422957
-0.331691 -0.214441 -0.254390
0.175033 -0.304898 0.106396
-0.086922 0.337181 -0.017807
-0.099607 0.340443 -0.034108
-0.100717 0.336512 -0.036765
-0.333241 0.026106 0.287599
-0.331533 0.059091 0.280978
-0.332159 0.048749 0.264672
0.021144 0.055894 0.133870
-0.229782 -0.439917 0.399171
0.293954 -0.200355 -0.004227
0.282893 -0.227620 0.010529
0.295515 -0.202766 -0.005892
-0.069804 0.414981 0.006467
-0.056643 0.373856 0.009628
-0.068192 0.409268 0.003601
-0.054380 -0.147145 0.137950
0.227129 -0.274899 -0.228984
0.228746 -0.274404 -0.219442
-0.137901 -0.436866 0.189092
-0.138814 -0.436760 0.195289
-0.146061 -0.270894 -0.425146
-0.148516 -0.290845 -0.425406
-0.172117 -0.279354 -0.424585
0.245654 -0.425774 -0.086835
0.242589 -0.412660 -0.095440
0.287914 0.442032 -0.220661
-0.181170 -0.296017 -0.425614
-0.163499 -0.299324 -0.424764
-0.195012 -0.278976 -0.424929
-0.222056 -0.374490 -0.429679
-0.236575 -0.357386 -0.427983
-0.255670 -0.344751 -0.426959
-0.309773 -0.068652 0.416846
-0.256041 -0.323430 -0.424882
-0.249988 -0.329723 -0.425558
-0.182543 -0.288970 -0.425038
0.273757 -0.430237 0.015708
0.278444 0.438800 -0.192356
-0.251117 -0.239663 -0.423786
-0.224322 -0.236645 -0.424828
-0.263120 -0.226526 -0.425042
-0.242654 -0.216903 -0.425295
-0.250251 -0.223293 -0.423698
-0.190428 -0.174711 -0.425229
0.268281 0.432863 -0.113558
-0.180995 -0.241048 -0.425660
-0.198466 -0.218793 -0.425739
-0.179478 -0.232563 -0.425655
0.246735 -0.157418 0.054515
-0.117032 -0.198103 -0.422952
-0.077999 -0.215060 -0.423104
-0.117312 -0.195778 -0.422823
-0.098747 -0.186408 -0.422448
-0.307226 -0.437599 -0.058780
-0.253607 -0.221106 0.427891
-0.312695 -0.229444 0.418819
-0.279519 -0.238305 0.424560
-0.072445 0.367597 -0.005576
-0.073581 0.324744 -0.002991
-0.083311 0.337166 -0.014986
0.297711 -0.171149 -0.013855
0.303385 -0.163945 -0.023250
0.297121 -0.163438 -0.010359
-0.333173 -0.089949 0.152703
-0.333861 -0.099789 0.162742
0.259930 -0.228328 0.037095
0.273918 -0.219232 0.024728
0.266850 -0.237803 0.030479
-0.210645 -0.414536 0.419631
-0.212835 -0.410386 0.419566
-0.194115 -0.425491 0.416318
0.047452 -0.179730 0.227794
-0.121533 0.305824 0.148629
0.245515 0.304985 -0.153334
0.244238 0.336410 -0.176789
0.245380 0.301117 -0.161364
-0.086255 -0.303541 -0.013054
-0.057131 -0.321666 -0.425032
-0.070235 -0.307110 -0.422283
-0.048027 -0.318172 -0.425514
-0.091291 -0.315812 -0.422878
-0.084266 -0.297598 -0.421812
-0.059762 -0.281035 -0.422911
-0.083818 -0.291640 -0.421941
-0.036746 -0.299480 -0.424584
-0.057844 -0.281580 -0.423192
-0.059341 -0.285607 -0.422255
-0.028581 -0.305997 -0.423995
-0.023744 -0.261681 -0.424066
-0.012645 -0.279942 -0.425951
0.019201 -0.295695 -0.422715
-0.024721 -0.303037 -0.425047
-0.000350 -0.284615 -0.421625
0.063885 0.430771 -0.354857
0.255885 -0.037119 0.043254
0.257703 -0.054385 0.041573
0.266043 -0.054720 0.034759
0.064966 0.436806 -0.388852
0.031197 0.438128 -0.387202
-0.020303 -0.318252 -0.425818
0.131332 0.020378 0.036158
0.094384 0.034883 0.046239
-0.184318 0.193376 -0.423839
-0.028734 -0.123693 -0.421462
-0.016890 -0.133644 -0.420769
-0.248102 0.085063 0.422500
-0.137724 0.010500 0.173063
-0.129806 -0.001704 0.157415
-0.133303 0.010239 0.162984
-0.145889 0.199241 -0.423174
-0.168398 -0.265462 -0.426345
-0.179617 -0.244641 -0.425683
0.114712 -0.127989 -0.414141
0.096441 -0.102036 -0.417983
-0.221411 -0.029123 0.427018
-0.216031 -0.020539 0.426180
-0.125190 -0.444232 0.101537
-0.089252 -0.444826 0.090514
-0.073845 -0.169702 0.407692
-0.183335 -0.032917 0.422669
-0.269724 0.157033 0.424450
-0.277965 0.156122 0.423832
-0.283350 0.136818 0.421154
-0.020531 -0.140066 0.137178
0.133220 0.164993 -0.412159
0.142934 0.166170 -0.409748
0.142486 0.139180 -0.409870
-0.333256 -0.098460 -0.060174
0.060976 0.258316 -0.420365
0.000883 0.293849 0.041804
-0.008618 0.321420 0.038665
0.000097 0.323150 0.041701
-0.003325 -0.444415 0.146338
-0.332335 -0.408756 -0.216892
-0.333487 -0.402809 -0.216863
0.050881 -0.295962 -0.421266
0.018458 -0.309522 -0.424644
-0.156722 0.369978 0.420619
-0.169543 0.359015 0.425888
-0.157406 -0.249318 -0.424223
-0.140249 0.417890 0.359550
-0.265736 -0.346142 0.341045
0.067688 -0.283169 -0.418693
0.081505 -0.277760 -0.417382
0.142526 -0.252788 -0.405840
0.170181 0.379085 0.006639
0.172826 0.389164 0.007084
0.166782 0.396613 0.010905
-0.150086 0.072876 0.415587
0.115527 0.205464 -0.415971
-0.124467 -0.168693 0.415573
0.131476 0.057552 0.122564
0.140112 0.052301 0.120036
-0.123359 -0.320431 0.422861
-0.129675 -0.324020 0.422206
0.183077 -0.431938 0.021896
0.207889 -0.431321 0.073150
0.205964 -0.272562 -0.378376
0.201372 -0.302971 -0.380341
0.190699 -0.308095 -0.386472
0.024004 -0.410523 0.419257
0.016536 -0.391420 0.425332
0.107304 -0.411358 0.123913
0.114312 -0.380031 0.125763
0.136142 -0.260911 -0.406500
0.120373 -0.263198 -0.410442
0.101460 -0.213692 -0.412775
0.218803 -0.430424 0.000834
0.190740 -0.427738 0.007981
-0.157907 -0.369963 0.323189
-0.120746 -0.374557 0.304308
0.273339 -0.165671 0.025783
0.268277 -0.191553 0.029611
0.257778 -0.155917 0.043182
-0.235625 -0.171126 0.426777
-0.240059 -0.171799 0.427482
-0.247505 -0.166226 0.428721
-0.146671 0.384903 -0.426445
0.241203 -0.156845 0.060759
0.254277 -0.161328 0.046552
0.052771 -0.416683 0.182509
-0.239457 0.444190 0.313751
-0.237941 0.444248 0.310459
-0.254438 0.443474 0.303138
0.202603 -0.305963 -0.379530
0.301632 -0.228736 -0.272740
0.306827 -0.262322 -0.260494
0.308442 -0.234421 -0.257704
-0.329855 0.288356 -0.399306
-0.139934 0.204821 0.370688
0.248366 -0.431387 -0.053087
0.207725 -0.228014 0.082541
0.222447 -0.171065 0.075528
0.204889 -0.238409 0.085763
-0.074256 -0.433534 0.019647
0.220054 -0.188583 -0.369260
0.219784 -0.181600 -0.369235
-0.205836 -0.021016 -0.424758
-0.244342 -0.021483 -0.426131
-0.182967 -0.040874 -0.425024
0.208425 -0.288000 -0.376084
0.195192 -0.300363 -0.384766
0.252640 -0.273513 -0.338264
0.238006 -0.276735 -0.352827
0.232741 0.167456 -0.355500
-0.114387 -0.190103 0.419973
-0.332255 0.202788 0.035584
-0.332617 0.187116 0.023792
-0.332718 0.193449 0.045445
-0.289387 -0.374435 0.253111
-0.276726 -0.373178 0.247607
-0.140473 0.201121 0.375798
-0.138705 0.195948 0.333987
0.269609 0.152374 -0.317724
0.000380 0.292406 -0.331263
-0.010193 0.258059 -0.326751
0.016306 0.285835 -0.335369
-0.249882 0.441789 0.269059
-0.254454 0.443468 0.303140
-0.242264 0.443762 0.293634
0.257570 -0.237980 -0.334239
0.249536 -0.233506 -0.340419
-0.174790 0.072781 -0.423340
-0.183626 0.060930 -0.423988
-0.332936 -0.132146 0.151088
-0.333862 -0.137851 0.164637
-0.140320 0.421205 0.231688
-0.139124 0.212380 0.294552
-0.139450 0.220577 0.297881
-0.330199 -0.417916 -0.103939
-0.330043 -0.418546 -0.105714
0.223965 0.421897 -0.243319
0.226294 0.426941 -0.240919
0.226208 0.426511 -0.240691
0.257540 0.166346 -0.332588
0.259714 0.175381 -0.329249
0.285309 0.108656 -0.296723
0.271905 0.050501 -0.317033
0.266510 0.090500 -0.323517
0.318984 0.035580 -0.053589
0.314189 0.035936 -0.043696
0.231554 0.159485 -0.356084
-0.191025 0.427479 0.415829
-0.223602 0.410551 0.423759
0.261454 -0.285422 -0.328070
0.264079 -0.282318 -0.325531
0.266672 -0.311856 -0.321827
0.035784 0.275924 0.129321
0.048309 0.292859 0.129259
0.056132 0.294166 0.129868
0.222088 -0.438676 -0.324085
0.245062 0.311173 -0.121147
0.245544 0.294273 -0.125120
0.245399 0.294297 -0.124936
0.276659 -0.304129 -0.309650
0.266778 -0.336159 -0.327692
0.262425 -0.267839 -0.326989
0.276358 -0.286956 -0.312120
0.293561 0.255178 -0.283303
0.293643 0.273201 -0.284828
0.295399 0.257208 -0.281762
-0.189843 -0.443516 -0.155544
-0.180465 -0.441654 -0.160961
0.299393 0.185150 -0.273379
0.294831 0.172293 -0.284020
0.293880 0.162939 -0.284729
0.296266 0.118790 -0.278792
0.289323 0.114601 -0.289432
0.290679 0.134545 -0.290323
0.277604 0.147470 -0.309069
0.208860 -0.435053 -0.362361
0.203655 -0.439729 -0.358838
-0.229114 0.319528 0.427183
-0.212762 0.321180 0.426363
-0.182774 0.320135 0.424395
-0.153886 0.291237 0.409904
-0.180932 0.328800 0.425235
-0.220406 0.016353 -0.424730
-0.250290 0.009365 -0.425888
-0.251293 0.011335 -0.426090
-0.332055 -0.071312 -0.187604
-0.331899 -0.070994 -0.186399
-0.332552 -0.070968 -0.169832
0.312714 0.155321 -0.244168
0.321546 0.144536 -0.213970
0.315592 0.265484 -0.230374
0.308731 0.293970 -0.250820
-0.237880 -0.115507 -0.426493
-0.257521 -0.111044 -0.425085
-0.258131 -0.096711 -0.425908
0.297913 -0.302949 -0.276636
0.294861 -0.288864 -0.279356
0.301184 -0.290492 -0.267108
-0.331600 -0.408717 -0.137033
-0.332067 -0.411408 -0.139961
-0.331236 -0.408090 -0.130655
-0.123403 -0.438694 -0.394472
0.315363 0.275495 -0.226934
0.308202 0.264682 -0.247198
0.315769 0.180580 -0.233356
0.318826 0.165526 -0.227928
0.305485 0.146107 -0.261740
0.309836 0.155316 -0.251885
0.309863 0.073265 -0.246416
0.306323 0.089076 -0.252453
0.298633 0.144651 -0.274893
0.312318 -0.292486 -0.242238
0.022617 -0.410027 -0.336863
0.312136 -0.295354 -0.241151
-0.323363 -0.214539 0.299763
0.329918 0.112289 -0.175587
0.327213 -0.310143 -0.193655
0.319485 -0.313720 -0.221131
0.320062 -0.279148 -0.215939
0.316627 -0.169007 -0.233250
0.314698 -0.175236 -0.240438
0.322084 0.266403 -0.189517
0.325683 0.273681 -0.176840
0.327307 0.246728 -0.164484
0.308222 0.161343 -0.032439
-0.065049 0.045363 -0.424468
-0.064448 0.039610 -0.424493
0.327483 0.156481 -0.189390
0.322930 0.130475 -0.209629
0.327796 0.149469 -0.189444
-0.335068 0.094749 -0.384792
-0.332421 0.079180 -0.393643
-0.080425 0.035160 -0.423505
-0.105105 0.046005 -0.423964
0.319556 0.139597 -0.223377
0.328510 -0.301454 -0.171149
-0.086395 -0.008374 -0.015523
-0.099357 -0.033323 -0.030591
0.327815 -0.300388 -0.181065
-0.039318 0.325379 0.020915
-0.057864 0.327505 0.009618
-0.046211 0.317585 0.017577
-0.238174 0.310102 0.426677
0.324177 0.277243 -0.080108
-0.300549 0.437980 0.241826
-0.235038 0.442564 0.269356
-0.237986 0.442508 0.270988
0.329338 0.189339 -0.098429
0.327395 0.218002 -0.088277
-0.052051 -0.143607 -0.423191
-0.326741 -0.215783 0.333064
-0.323061 -0.214452 0.321338
0.243670 -0.251767 0.053171
0.241174 -0.236828 0.056540
0.215030 0.378375 -0.042906
0.219548 0.387835 -0.045594
0.331213 -0.273370 -0.103112
0.328135 -0.268122 -0.079944
0.328732 -0.282862 -0.099929
-0.303600 -0.002339 -0.421577
0.295473 -0.172174 -0.009614
0.311282 -0.163654 -0.043304
0.304686 -0.157283 -0.029170
-0.038371 0.406067 0.023017
0.330606 0.180463 -0.163864
0.331064 0.150247 -0.158507
0.072699 0.203272 0.049924
0.092176 0.197340 0.045923
0.101233 0.186342 0.042819
0.331786 0.080231 -0.116183
0.331266 0.072712 -0.111172
-0.034376 0.319161 -0.427246
0.310195 0.353654 -0.030966
0.319539 0.353724 -0.058777
0.315220 0.408702 -0.056181
0.328572 0.252491 -0.108803
0.328597 0.243551 -0.104713
0.328025 0.242025 -0.096055
0.239856 -0.362293 -0.090282
0.332885 -0.170505 -0.144429
0.331803 -0.175343 -0.149838
-0.317605 0.117272 -0.411914
0.328681 0.133526 -0.181644
0.331346 0.142394 -0.156995
-0.005013 0.205121 0.041494
-0.007449 0.175959 0.039973
-0.020005 0.199143 0.032637
0.334460 0.063841 -0.131244
0.333978 0.079216 -0.151880
0.104417 -0.379433 0.037842
0.108174 -0.378772 0.036465
0.332090 -0.274126 -0.135157
0.332859 -0.284068 -0.134032
-0.018456 0.198431 0.035192
-0.042053 0.194702 0.021487
0.330757 -0.281961 -0.143577
0.331031 -0.273489 -0.152034
0.244940 0.219623 -0.098857
0.241511 0.224428 -0.092254
0.247786 0.223783 -0.120338
-0.110273 0.192984 0.144020
0.239642 -0.165970 -0.204545
0.239573 -0.165415 -0.204752
-0.091940 0.231561 -0.017306
-0.100537 0.224475 -0.030237
-0.093093 0.233987 -0.018634
-0.331922 -0.087226 -0.389418
-0.333954 -0.086332 -0.380479
0.165094 -0.032912 -0.400521
0.129847 -0.025242 -0.413766
0.157318 -0.021110 -0.404019
-0.140320 0.313630 0.275298
-0.140077 0.287986 0.273096
-0.136534 -0.414726 0.423845
-0.153321 -0.413542 0.422781
-0.163505 -0.410319 0.425477
0.211049 -0.254640 0.080736
-0.250199 0.231672 0.425189
-0.232224 0.211569 0.425445
-0.231030 0.220404 0.425759
-0.309878 -0.438781 -0.345060
-0.126557 -0.416089 0.423042
-0.137185 0.227360 -0.127524
-0.138174 0.213736 -0.145038
-0.138695 0.230509 -0.119664
-0.323245 -0.212098 -0.410574
-0.313588 -0.226226 -0.414531
-0.265455 -0.233979 -0.424345
-0.276888 -0.224378 -0.422734
-0.137839 0.216691 -0.147850
-0.138878 0.229010 -0.157982
-0.008978 0.371111 -0.431770
-0.017098 0.395678 -0.427083
0.209314 -0.101207 0.087754
0.184675 -0.084064 0.100972
-0.170410 0.433796 0.405324
0.153085 0.260980 0.114839
-0.266289 -0.215523 -0.424208
-0.250331 -0.205229 -0.424972
-0.253824 -0.195055 -0.424849
0.050051 -0.421519 0.198670
0.103652 0.358559 0.038995
0.115986 0.376957 0.036142
-0.224976 0.097552 -0.423965
-0.234061 0.093525 -0.423659
-0.238130 0.112385 -0.423400
-0.261526 0.123307 -0.424247
-0.334109 -0.000352 -0.055761
-0.334025 -0.005240 -0.082275
0.213349 -0.412326 -0.260105
0.209800 -0.409493 -0.262236
0.222757 -0.423842 -0.248986
-0.020269 0.323201 -0.427374
-0.209704 0.097431 -0.422249
-0.197580 0.131158 -0.424056
-0.193183 0.070982 -0.423969
0.156301 0.419817 -0.319860
0.160027 0.407473 -0.307452
0.314240 -0.164859 -0.054325
0.312682 -0.166786 -0.050767
0.216701 -0.249342 0.077792
0.186742 -0.260031 0.098590
-0.071517 0.203342 -0.290632
-0.051717 0.228714 -0.304515
-0.057793 0.227026 -0.300673
-0.186394 0.132678 -0.424251
-0.034022 0.223932 -0.315985
-0.119956 0.305699 -0.424255
-0.119703 0.303295 -0.423228
-0.116275 0.296305 -0.423891
0.241521 0.204270 -0.082958
0.236135 0.214622 -0.070869
0.308280 -0.071840 -0.033777
0.324381 -0.236656 -0.086952
0.324671 -0.207819 -0.088353
0.321394 -0.203282 -0.073818
-0.333982 0.309088 -0.286447
-0.139710 0.302284 0.308791
-0.140403 0.298434 0.293686
-0.139648 0.304055 0.307743
0.178641 0.090518 0.000388
-0.027884 0.076100 -0.426931
0.041031 0.181900 -0.336321
0.065042 0.167283 -0.335500
0.066953 0.181680 -0.336051
0.235120 -0.239751 -0.074433
-0.309791 0.373082 -0.419001
-0.305673 0.360364 -0.419533
-0.304716 0.360960 -0.419697
-0.301101 0.337299 -0.420586
0.102747 0.187543 -0.330649
-0.261476 0.322261 -0.425329
-0.252611 0.325110 -0.426451
-0.266082 0.328097 -0.424774
0.223292 0.143317 -0.050896
0.237277 0.129804 -0.079152
0.230881 0.108377 -0.068837
0.296646 -0.087001 -0.007311
0.221302 0.125502 -0.051031
0.217670 0.110063 -0.045521
0.139783 0.191611 -0.320504
0.141947 0.174329 -0.317587
-0.170625 0.326995 -0.426085
-0.331232 -0.045394 0.186795
-0.331578 -0.042071 0.191872
-0.335111 -0.293711 0.099810
-0.333085 -0.263550 0.095027
0.145865 0.167461 -0.315936
0.152350 0.177189 -0.312747
0.240177 -0.242189 -0.091317
0.244501 -0.210578 -0.105054
-0.053109 0.441337 0.060596
0.118907 0.314163 -0.324705
0.107577 0.303620 -0.328816
0.116845 0.299344 -0.325722
0.185336 0.180476 -0.288540
0.234719 -0.119857 -0.071489
0.223643 0.197623 -0.238881
0.221567 0.206185 -0.242788
0.210609 0.215807 -0.259085
-0.259736 0.233001 -0.424294
-0.272903 0.214542 -0.423339
-0.262109 0.211830 -0.424541
-0.259030 0.209415 -0.424784
-0.150997 0.152507 0.415103
0.251414 -0.133901 -0.125951
0.024540 -0.290660 0.195760
0.242246 0.166929 -0.205991
0.246702 0.184832 -0.189045
0.249379 0.183269 -0.173278
-0.002007 -0.395053 -0.427248
0.249434 -0.120456 -0.137460
0.250440 -0.107890 -0.148445
0.244859 -0.230809 -0.115907
0.245727 -0.229853 -0.133700
0.251088 0.180845 -0.146753
0.244097 -0.131555 -0.185920
0.242760 -0.154763 -0.194248
0.247129 -0.148168 -0.165273
-0.130798 0.441830 -0.386956
0.119479 -0.098159 -0.415021
-0.157818 0.442256 0.298267
-0.155550 0.439307 0.323445
-0.163932 0.443918 0.291636
-0.108328 0.084890 -0.423119
-0.105850 0.080002 -0.423218
0.249778 0.194428 -0.118065
0.247428 0.189677 -0.104631
0.237963 -0.086690 -0.205724
0.239002 -0.107403 -0.211048
0.243592 -0.097728 -0.193657
-0.043444 0.176455 -0.423196
-0.047119 0.142997 -0.423756
-0.050880 0.178133 -0.423509
-0.176309 0.165152 0.422971
-0.162033 0.148964 0.418883
-0.289962 -0.444593 0.271578
-0.302432 -0.441966 0.286996
-0.315417 -0.436438 0.274044
0.242306 -0.132520 -0.191154
0.236160 -0.122085 -0.214705
0.331937 0.219151 -0.125108
0.063760 -0.066521 0.132630
-0.155858 0.131104 0.416386
0.177820 0.176023 0.005505
0.158839 0.148871 0.017647
0.160033 0.161023 0.017649
0.235713 -0.124738 -0.217599
0.239220 -0.146518 -0.205666
-0.075121 0.196784 -0.423040
0.240019 -0.091112 -0.196937
0.233107 -0.094810 -0.224762
-0.075014 0.229047 -0.422617
0.225164 -0.231789 -0.236668
-0.132422 0.206993 -0.422297
0.234769 -0.083808 -0.221279
0.234276 -0.113741 -0.221712
-0.200423 -0.020329 -0.425577
-0.212518 -0.007666 -0.425650
0.331023 0.223545 -0.126679
-0.199234 -0.027064 -0.425112
-0.199271 -0.021349 -0.425367
-0.166590 -0.000841 -0.424179
-0.264276 -0.443239 -0.098322
-0.254778 -0.445253 -0.129698
-0.184556 0.041262 -0.425638
-0.164097 0.040970 -0.425227
-0.208026 0.092065 -0.422682
-0.222481 0.098795 -0.423854
0.231315 0.081844 -0.226442
0.232204 0.088589 -0.223453
-0.269671 -0.444905 -0.087630
-0.303943 0.440834 -0.097470
-0.302076 0.441935 -0.119840
0.215330 -0.059199 -0.250293
0.205693 -0.047254 -0.264591
0.230863 -0.037994 -0.228362
-0.052334 -0.427360 0.028256
-0.293229 0.443744 0.107015
0.193176 -0.145996 -0.282267
0.182756 -0.150190 -0.292657
0.187229 -0.156887 -0.288591
-0.248297 -0.065772 -0.426331
-0.242762 -0.076757 -0.425264
0.125254 -0.414988 0.121637
-0.223867 -0.088415 -0.425476
0.205425 -0.198390 -0.265243
0.191688 -0.192435 -0.285086
-0.142378 0.297590 -0.424838
-0.093837 -0.029199 -0.423355
-0.105733 -0.027263 -0.424072
-0.117336 -0.013287 -0.423946
-0.105517 -0.036308 -0.424353
-0.298409 -0.127493 0.422435
-0.157600 -0.090627 -0.423840
-0.168955 -0.081022 -0.424435
0.111080 -0.414119 -0.331405
0.121862 -0.365132 -0.326320
-0.098335 -0.271550 -0.422759
-0.034788 0.071738 -0.425743
0.085320 0.332445 -0.419248
0.046114 0.361635 -0.424137
-0.155762 0.109782 0.417444
-0.150252 0.129049 0.412642
-0.001324 -0.422005 0.049168
-0.324443 -0.406598 0.411549
-0.323066 -0.408454 0.411711
-0.246844 0.447650 -0.189287
-0.253355 0.448760 -0.193303
-0.257221 0.444438 -0.402778
0.120257 0.119834 -0.327054
-0.143817 0.438202 -0.260366
-0.077518 -0.087530 0.130231
-0.108599 -0.087970 0.131593
0.182486 -0.105631 -0.290976
0.193715 -0.111465 -0.280156
0.168595 -0.078233 -0.301342
0.158614 -0.074950 -0.306637
-0.073988 0.213535 -0.000950
-0.306209 -0.307335 0.353781
-0.303494 -0.306029 0.354903
0.163487 -0.228252 -0.305476
0.070943 0.295874 -0.418362
0.089482 0.304608 -0.417702
-0.330184 -0.258085 -0.397385
-0.092362 -0.236973 0.236035
-0.087033 -0.235903 0.232928
0.100669 -0.316702 -0.415876
0.085918 -0.316636 -0.419846
0.119117 -0.299108 -0.411413
-0.104713 -0.326906 -0.423732
-0.098768 -0.307952 -0.421907
-0.331802 0.181187 0.271960
-0.332121 0.155855 0.265070
-0.084017 -0.347416 -0.425930
-0.000766 0.170683 0.130623
0.013822 0.206061 0.131062
-0.020392 0.188815 0.131881
0.114337 -0.402235 -0.415208
0.126949 -0.420148 -0.407765
0.093507 -0.413939 -0.416837
0.174736 -0.123198 -0.297956
0.108976 -0.062529 -0.331107
0.146942 -0.052184 -0.314039
0.118563 -0.055282 -0.325842
0.324458 0.190596 -0.202949
0.333262 -0.258223 -0.144258
-0.042139 -0.260899 -0.424951
-0.041215 -0.258090 -0.425213
0.160363 -0.213747 -0.308373
0.302456 0.227284 -0.267368
0.304344 0.243209 -0.264771
0.321540 -0.271268 -0.218150
0.096897 -0.143805 -0.333324
0.117383 -0.156147 -0.329314
0.139553 -0.153096 -0.318903
0.086513 0.127679 -0.335347
0.299746 -0.282919 -0.270734
0.290093 -0.271107 -0.292623
0.294169 -0.256743 -0.286618
-0.010242 -0.242864 -0.423769
-0.026706 -0.244515 -0.427484
-0.127855 -0.317196 -0.424221
0.108663 -0.079124 -0.331765
0.106759 -0.083935 -0.332380
0.107714 -0.263332 -0.331784
0.113415 -0.253868 -0.328832
-0.282578 0.446677 -0.094022
-0.280706 0.444144 -0.262064
-0.280443 0.444339 -0.248093
-0.335205 -0.285418 -0.356797
-0.335886 -0.298287 -0.356560
-0.332558 0.117648 0.212514
0.064715 -0.045756 -0.338953
0.048591 -0.035904 -0.339310
0.062060 -0.060832 -0.338871
-0.324040 -0.122387 0.403256
0.076697 -0.243770 -0.337839
0.006911 0.132303 -0.332927
0.181798 0.394420 -0.394394
0.190344 0.421095 -0.385956
-0.337313 0.359196 0.142108
-0.334554 0.332719 0.156049
0.058165 -0.080928 -0.338731
0.051597 -0.076604 -0.335485
0.052611 -0.069980 -0.336339
0.045686 0.191604 -0.426046
0.051992 -0.247506 -0.340284
0.216909 -0.028475 -0.251923
0.215476 -0.032057 -0.252868
-0.335196 0.375530 -0.062002
0.011270 0.201203 -0.424758
0.024060 -0.271745 -0.422562
0.030269 -0.260057 -0.422571
0.036539 -0.268491 -0.421363
0.047078 -0.177388 -0.339346
-0.015750 -0.068948 -0.321710
-0.016277 -0.054363 -0.320936
-0.022462 -0.063742 -0.320595
-0.128787 0.447075 -0.349936
0.004442 -0.208727 -0.334473
-0.020881 -0.176480 -0.321811
-0.033511 -0.190421 -0.316850
-0.019447 -0.210940 -0.322769
0.105489 0.154566 -0.418441
0.110554 0.139804 -0.416831
-0.333110 -0.170422 0.173653
-0.333489 -0.175144 0.158843
-0.015342 0.358636 0.030955
-0.012039 0.352780 0.032606
-0.337635 -0.329318 -0.350538
0.246432 -0.316065 -0.126241
0.246207 -0.319505 -0.117473
0.307596 0.213338 -0.029114
0.294538 0.215151 -0.008653
-0.099411 0.447991 -0.351971
-0.031611 -0.363768 0.025253
-0.030589 -0.358201 0.025594
-0.023298 -0.380337 0.029020
0.228200 -0.071274 -0.232859
-0.335167 -0.325230 -0.317312
-0.333861 -0.306600 -0.308875
-0.334479 -0.249113 -0.334538
-0.334107 -0.233145 -0.344611
-0.043137 -0.190390 -0.425061
-0.003086 -0.188511 -0.423205
-0.031914 -0.199869 -0.426043
-0.029215 -0.229517 -0.319283
-0.072711 -0.156871 -0.292805
-0.086847 -0.161692 -0.277201
-0.066318 -0.174300 -0.296280
-0.333999 -0.306078 -0.308870
-0.333564 -0.292811 -0.286330
-0.334338 -0.303396 -0.300949
-0.205477 -0.146358 0.426052
-0.138403 -0.165902 0.414007
-0.331278 -0.197282 0.146549
0.050839 -0.200637 0.305764
0.292315 -0.127128 -0.292474
0.193823 0.256951 0.095426
0.198873 0.254314 0.093584
-0.331750 0.308416 -0.096446
-0.331297 0.252577 -0.137455
-0.331791 0.282416 -0.144177
-0.117921 0.449210 0.054873
0.283528 0.412334 -0.302179
0.269851 0.432938 -0.297406
-0.330595 0.264227 -0.078596
0.231786 0.425529 -0.224173
-0.332658 -0.014033 -0.174398
-0.331795 -0.020322 -0.214390
-0.332421 -0.407771 -0.180157
-0.332187 -0.408657 -0.213761
-0.331224 -0.414214 -0.184388
-0.332277 -0.056938 -0.196120
-0.097064 -0.135990 -0.264581
-0.113005 -0.126471 -0.239772
-0.062017 -0.175506 -0.423933
-0.333835 -0.100429 -0.124744
-0.336994 -0.191204 0.210312
-0.332109 -0.210738 0.160797
-0.330816 0.220746 -0.058522
-0.331271 0.234932 -0.044246
-0.330918 0.229878 -0.040397
0.196595 0.377570 -0.014250
-0.333075 -0.089496 -0.149882
-0.334260 -0.129943 -0.127804
-0.328939 -0.120588 0.041240
-0.296527 -0.378185 0.426100
-0.309052 0.108990 0.413385
-0.330978 -0.111763 0.060380
-0.126928 0.431377 -0.251874
-0.304314 0.090129 0.416892
-0.106179 -0.235241 0.421393
-0.124975 -0.228627 0.422523
-0.110704 -0.217092 0.423113
-0.126205 -0.215526 0.421541
-0.127995 -0.203406 0.421460
-0.114399 -0.138409 -0.236839
-0.118344 -0.136690 -0.235825
-0.116324 -0.125876 -0.235102
0.317407 0.415540 -0.223229
0.306929 0.416860 -0.249094
-0.291248 -0.440144 -0.143169
-0.292149 -0.440286 -0.155283
-0.332087 -0.247010 0.106681
-0.331542 -0.240351 0.119476
-0.331300 -0.237778 0.118124
-0.329945 -0.206306 0.072181
-0.330167 -0.209852 0.066027
0.045672 -0.243608 0.397726
0.044871 -0.238004 0.414807
0.326868 -0.106779 -0.201360
-0.330592 -0.196680 0.094302
-0.330110 -0.176761 0.064954
0.173765 -0.270274 -0.294699
-0.108174 -0.250147 -0.251470
-0.101362 -0.262383 -0.260727
-0.127433 -0.131937 0.154192
-0.183392 -0.298789 -0.425654
-0.215798 -0.310013 -0.425436
-0.140562 -0.025340 0.322393
-0.137444 -0.005153 0.361675
-0.188796 -0.406882 -0.424907
-0.189096 -0.406331 -0.424944
-0.336405 -0.323267 0.120936
-0.335198 -0.309736 0.128377
-0.336079 -0.322615 0.109446
-0.327038 0.416638 0.264081
-0.332435 0.404486 0.282461
-0.331044 0.264873 -0.078106
-0.332258 0.025887 0.092940
-0.333804 0.010102 0.069491
-0.332207 0.000591 0.106798
-0.130281 -0.113977 -0.205996
-0.334361 0.300912 0.360256
-0.323878 0.274656 0.407451
-0.333697 0.012566 0.070357
-0.333737 0.012615 0.079230
-0.333134 -0.012010 0.094343
-0.130959 -0.153678 -0.205555
-0.135918 -0.174025 -0.178526
-0.130062 -0.151581 -0.209321
-0.032321 -0.388803 -0.310984
-0.052702 -0.411966 -0.300869
-0.146477 -0.361955 -0.426926
-0.333218 0.031060 0.068794
-0.332813 0.027509 0.102887
-0.299033 -0.442329 0.345444
0.170371 0.328825 -0.298201
0.151895 0.291008 -0.309294
0.164091 0.305002 -0.300797
-0.133437 -0.446708 0.355215
-0.333577 -0.183862 0.347022
-0.330928 0.048611 0.151044
-0.331227 0.031583 0.147128
0.220400 0.280515 0.077669
0.220382 0.280553 0.077745
-0.133696 -0.116598 -0.186466
-0.129585 -0.117852 -0.204957
-0.133427 -0.104419 -0.180484
0.158177 -0.424145 -0.314051
0.139892 -0.415861 -0.321569
-0.136631 -0.114916 -0.165291
-0.136998 -0.157427 -0.175312
-0.137076 -0.123775 -0.147106
0.332278 -0.111567 -0.161703
0.323439 -0.221359 -0.212094
0.325222 -0.229952 -0.204273
0.319236 -0.243186 -0.223243
-0.136451 0.435898 -0.060087
-0.332310 0.294409 -0.205816
-0.331338 0.287688 -0.213997
-0.331226 0.281728 -0.195045
-0.332693 -0.013752 0.102046
-0.332191 -0.036705 0.093473
0.052843 -0.394851 0.048121
-0.333065 0.109902 0.038247
-0.333034 0.126675 0.049472
-0.078034 -0.381690 -0.277543
-0.067687 -0.418960 -0.292084
-0.333229 0.060495 0.022444
-0.333018 0.057905 0.054404
-0.135793 -0.172107 -0.123587
-0.133396 -0.172249 -0.106734
-0.135771 -0.175602 -0.121592
-0.330438 0.270523 -0.203287
-0.137180 -0.139944 -0.154652
-0.137942 -0.119447 -0.129613
-0.137395 -0.124822 -0.146930
-0.141005 -0.050340 0.359135
-0.146334 -0.037816 0.388212
-0.333052 0.338595 0.065526
-0.334430 0.342078 0.066489
-0.334242 0.355441 0.057854
0.333177 0.020559 -0.155541
0.333814 0.028730 -0.141817
0.001435 -0.414454 0.045656
-0.012691 -0.388805 0.034653
-0.138378 -0.061113 -0.134309
-0.139570 -0.030235 -0.142132
-0.138797 -0.029328 -0.125029
-0.131603 -0.265225 -0.099649
-0.133990 -0.116421 -0.107466
-0.131956 -0.139323 -0.097413
-0.336111 0.358366 0.029509
-0.333272 0.333258 0.024064
-0.333517 0.336145 0.059298
0.129249 -0.059304 -0.412499
-0.134419 -0.035974 -0.100151
-0.128027 -0.174693 -0.086166
-0.132707 -0.141407 -0.098231
-0.124657 -0.272458 -0.078976
-0.128052 -0.281987 -0.087023
-0.129616 -0.211600 -0.090616
-0.129533 -0.177071 -0.089829
-0.126573 -0.195472 -0.084050
-0.332720 0.297847 0.108305
-0.333337 0.290331 0.142807
-0.117593 -0.196086 -0.058995
-0.127207 -0.154572 -0.082392
-0.123495 -0.142588 -0.070496
-0.110730 -0.146801 -0.045463
-0.268059 0.449217 0.095221
-0.268236 0.449081 0.116411
-0.110900 -0.138714 -0.047311
-0.103073 -0.157764 -0.034666
-0.332056 0.100076 -0.387149
-0.335149 0.117712 -0.378576
-0.269599 0.445607 0.052714
-0.255634 0.446215 0.030379
-0.108509 -0.189035 -0.042630
-0.108809 -0.180781 -0.044780
-0.094798 -0.121759 -0.023614
-0.103756 0.198518 -0.034147
-0.093567 0.217982 -0.021061
0.107958 0.277689 -0.330969
0.105882 0.271795 -0.332343
0.093275 0.289972 -0.332099
-0.329812 0.419625 0.281733
-0.087347 0.289447 -0.012834
-0.332552 0.042335 0.219801
-0.107478 -0.390851 -0.247174
-0.332344 0.073768 0.203525
-0.026878 -0.165108 0.312085
-0.030480 -0.165402 0.312037
-0.025930 -0.164292 0.299214
-0.331552 -0.022935 0.126412
-0.331364 -0.042947 0.156156
-0.070979 -0.089670 -0.000195
-0.059588 -0.077911 0.008391
-0.301972 0.440977 -0.365116
-0.090699 -0.121307 -0.019522
-0.047772 -0.144199 0.017087
-0.067396 -0.181061 0.004585
-0.088767 -0.168824 -0.016448
-0.067932 -0.164933 0.004575
-0.052164 -0.126098 0.014985
-0.054405 -0.174141 0.013902
-0.277618 0.446291 0.103047
-0.210513 0.446400 0.060469
0.187959 -0.354674 0.104463
0.212857 -0.330920 0.086044
-0.067780 0.135375 0.002568
-0.042667 -0.166221 0.021147
0.146250 0.432008 0.103870
-0.040754 -0.113173 0.021390
-0.332986 0.298559 0.077934
-0.331955 0.284057 0.056971
-0.330426 0.264053 -0.014161
-0.317772 -0.324460 -0.415739
-0.317595 -0.303456 -0.413653
-0.307299 -0.301114 -0.418234
-0.238942 0.447174 -0.016562
-0.242517 -0.360976 0.424239
-0.255732 -0.373754 0.426781
-0.030401 -0.153167 0.027512
-0.038853 -0.129057 0.022197
-0.025618 -0.157853 0.029714
0.002496 -0.060422 0.039400
-0.006844 -0.074121 0.039362
-0.004686 -0.059145 0.037286
-0.016344 -0.247004 0.034306
-0.022433 -0.238811 0.032618
-0.002169 -0.253162 0.038116
0.029932 -0.151514 0.050422
0.053875 -0.180545 0.053848
-0.001463 -0.176899 0.038714
0.009882 0.129082 0.045901
0.004666 0.098305 0.043976
0.001818 -0.127764 0.042744
-0.267112 -0.359180 0.426450
-0.283770 -0.317083 0.426420
-0.300387 -0.301582 0.424608
-0.301329 -0.306501 0.424484
-0.253610 -0.446012 0.109625
-0.286064 -0.443983 0.099048
-0.311084 -0.410212 0.418277
-0.307165 -0.404515 0.419390
-0.257761 -0.431096 0.414359
-0.272960 -0.404314 0.426340
0.064829 -0.141663 0.051426
0.078816 -0.155031 0.047171
-0.261158 -0.427600 0.415890
0.184439 0.265203 -0.000407
-0.193402 -0.437636 0.242923
-0.163829 -0.443555 0.230132
0.331580 0.336792 -0.116337
0.051064 -0.249876 0.051612
-0.152487 0.441000 -0.202307
0.050672 0.124898 0.050469
-0.160558 0.395791 0.423193
-0.152469 0.410264 0.408587
-0.188025 0.430643 0.413836
0.251752 -0.428974 -0.109546
0.122371 0.246086 -0.413429
0.135559 0.275803 -0.408435
-0.292349 0.443046 0.084100
-0.293629 0.443610 0.094859
-0.284136 0.445035 0.074514
0.059971 0.128872 0.129692
0.065325 0.123808 0.132169
0.212983 0.282072 -0.032667
0.191319 0.260525 -0.009340
-0.168854 0.186571 0.423091
-0.160515 0.207780 0.416340
-0.218300 -0.306702 0.420254
-0.304093 -0.377749 0.254450
-0.199304 -0.245663 0.423920
-0.326428 0.132629 0.394905
0.113626 -0.166614 0.040849
0.102921 -0.160718 0.044541
0.211668 0.283232 -0.030336
-0.201966 -0.230107 0.424720
-0.162995 0.443251 -0.216903
-0.106494 -0.329385 0.420880
0.211734 -0.344603 -0.255303
0.202288 -0.365216 -0.264649
0.059203 -0.070808 -0.337221
0.057322 -0.086684 -0.337511
0.059660 -0.086887 -0.338102
0.158478 -0.107022 0.020517
0.168263 -0.118511 0.014722
0.178490 -0.114993 0.005910
0.180530 -0.133375 0.002375
0.204658 0.292032 -0.021811
0.146951 0.151546 0.025257
-0.277539 -0.289523 -0.422045
-0.259726 -0.311755 -0.424852
0.244289 0.167350 -0.091877
0.245518 0.168307 -0.095163
0.231262 0.108743 -0.069208
0.245211 0.162613 -0.096535
-0.093430 -0.425752 0.418072
-0.070195 0.157109 0.000344
-0.216587 -0.445145 -0.161802
-0.235492 -0.444891 -0.153749
-0.092554 -0.169437 -0.021194
-0.091969 -0.159390 -0.020204
-0.094180 -0.142119 -0.023130
0.181702 -0.425494 0.095238
0.165956 -0.411613 0.110312
0.237274 -0.136512 -0.073849
0.236906 -0.101559 -0.074231
0.215967 -0.056319 -0.037266
0.225342 -0.066069 -0.051200
0.234937 -0.087237 -0.068173
-0.335359 -0.236067 -0.344535
-0.043679 -0.328901 0.209097
-0.043833 -0.343446 0.216863
0.247220 -0.278926 -0.144770
0.036964 -0.434657 0.268937
-0.008488 -0.446819 0.265997
0.251087 -0.197103 0.047861
0.248236 -0.144687 0.052891
-0.058724 0.159592 0.009186
-0.037383 0.168473 0.023917
-0.041660 0.136648 0.020750
-0.064856 -0.442806 0.244651
-0.065634 -0.442929 0.246481
-0.070568 -0.439135 0.272673
0.246512 -0.280524 0.052297
-0.029295 0.265117 0.029027
-0.025055 0.281946 0.029566
-0.027051 0.283050 0.030430
-0.260606 0.446729 0.021459
-0.261803 0.446111 0.043391
-0.070959 -0.288300 0.201860
-0.175391 0.447406 0.056286
0.050699 0.166594 0.129624
-0.111981 -0.406474 -0.239545
-0.116201 -0.383687 -0.229570
0.046768 0.195124 0.130735
0.011263 0.206498 0.131479
-0.006958 0.224785 0.136652
-0.004082 0.215785 0.131991
0.050311 0.016562 -0.340966
-0.014951 0.207922 0.133133
-0.000679 0.171430 0.130526
-0.014417 0.195493 0.132394
-0.017600 0.156460 0.130123
-0.038763 0.151269 0.136175
-0.036802 0.154119 0.136347
-0.037394 0.157876 0.136205
-0.276834 0.426353 0.419870
-0.240879 0.417057 0.424661
-0.019208 0.221383 0.136816
-0.019155 0.242949 0.136055
-0.025655 0.222962 0.137035
-0.114415 -0.098879 0.133189
-0.122980 -0.103839 0.138382
0.034302 -0.322713 0.418969
0.033062 -0.324405 0.420598
-0.123756 -0.087474 0.137612
0.050201 -0.196669 0.304822
0.046243 -0.209181 0.305757
0.331731 0.035508 -0.117781
-0.331419 -0.003830 0.311260
-0.330997 -0.017634 0.328659
0.224129 0.292802 -0.229626
0.227396 0.292261 -0.224976
0.216690 0.290348 -0.246309
-0.043477 -0.226009 0.276166
-0.049899 -0.235622 0.235372
-0.050266 -0.225754 0.254019
-0.075229 -0.253609 0.423656
-0.330644 -0.036244 0.387538
-0.330633 -0.023005 0.392338
0.223302 -0.238632 -0.239811
-0.084152 -0.295782 0.425740
-0.073116 -0.324811 0.426183
0.032005 -0.223634 0.419055
0.034715 -0.208721 0.417129
0.010407 -0.232968 0.424202
-0.068162 -0.223009 0.293960
-0.335050 0.053352 0.345495
-0.333872 0.006973 0.348680
-0.331927 -0.003233 0.332120
-0.084247 -0.439573 0.022062
0.213524 0.287726 -0.249469
0.211902 0.289045 -0.249106
-0.190409 0.274456 -0.425781
-0.011148 -0.238132 0.426143
-0.013558 -0.230855 0.425528
-0.313439 -0.237455 0.327266
0.037530 -0.210989 0.415427
0.027721 -0.225008 0.420764
-0.334071 0.267190 0.349737
-0.334058 0.270916 0.349896
-0.334523 0.256651 0.348361
-0.332295 0.244241 0.307301
0.036241 -0.351570 0.422528
0.003772 0.251565 0.131455
0.004226 0.256535 0.131733
0.128928 0.268792 -0.323235
0.070333 -0.424873 0.131793
0.076070 -0.423323 0.127901
-0.331769 0.190534 0.283459
0.198729 0.311602 -0.271063
0.199823 0.322889 -0.271123
-0.332477 0.214616 0.297799
-0.332461 0.207926 0.301794
-0.334301 0.278607 0.335345
-0.331932 0.256523 0.307840
-0.332617 0.244914 0.316681
0.204459 0.304721 -0.261635
-0.009640 -0.286540 0.425002
-0.050859 -0.260127 0.424902
0.006694 -0.158395 0.147561
-0.077931 -0.241169 0.422965
-0.332295 0.192424 0.290574
0.218313 -0.276622 -0.242192
0.218362 -0.284212 -0.244227
-0.335245 -0.292799 -0.323283
-0.335115 -0.295471 -0.314653
0.236747 -0.428654 -0.235447
-0.138889 -0.114921 0.216291
-0.141867 -0.067740 0.235179
-0.335470 0.347499 0.332431
-0.334010 0.383973 0.308272
0.051878 0.323442 -0.423462
-0.063864 -0.401573 -0.291734
0.195242 0.307655 -0.277166
0.181244 0.285806 -0.286256
0.231653 -0.352950 -0.219533
-0.141308 0.417737 0.334379
-0.144876 0.427609 0.334203
-0.128076 -0.416172 -0.209514
-0.118384 -0.372334 -0.218440
-0.315175 0.257583 -0.413140
0.036928 0.419169 -0.340238
-0.002111 0.428386 -0.335144
-0.145974 0.016669 0.403499
-0.145760 0.014532 0.404855
-0.146339 0.007216 0.402051
-0.323610 -0.004359 0.404595
0.183112 0.427411 -0.386693
-0.104913 -0.287375 -0.253730
-0.111203 -0.308359 -0.239675
0.165098 0.309789 -0.300525
-0.143118 0.075196 0.256826
0.250299 -0.421265 0.053363
0.241329 -0.415279 0.064504
0.248197 -0.418203 0.056989
-0.140161 0.059412 0.286664
-0.138547 0.077953 0.318076
-0.139843 0.059150 0.302847
0.034331 0.218421 0.049828
0.002488 0.193664 0.043206
0.010548 0.202427 0.046628
-0.140957 0.041629 0.282626
-0.140608 0.051733 0.284292
0.332668 -0.323379 -0.127866
0.334711 -0.345001 -0.144737
-0.102353 0.081291 0.138544
-0.141179 0.128041 0.254191
-0.142193 0.084824 0.254533
-0.141011 0.119153 0.231213
0.109550 -0.379958 0.036177
0.136542 -0.189499 0.034907
0.109733 -0.171443 0.041762
-0.139089 0.129838 0.294835
-0.139729 0.109748 0.285005
-0.078369 -0.165436 0.313098
-0.097384 -0.163969 0.310228
-0.124463 -0.158508 0.240457
-0.089015 -0.171684 0.290210
0.142463 -0.281358 -0.317477
0.143142 -0.302574 -0.315966
-0.126075 -0.160644 0.306071
-0.069870 -0.165705 0.323113
0.331085 0.332120 -0.108892
-0.135529 -0.119574 0.258883
-0.089807 0.225251 0.140109
-0.034115 0.230117 0.137677
-0.054993 0.248316 0.140531
-0.117914 0.349480 -0.062041
-0.107692 0.329127 -0.046338
-0.117420 0.348268 -0.060481
0.051463 -0.191938 0.053219
0.057530 -0.191245 0.053016
0.061603 -0.186730 0.052688
-0.136026 0.353466 0.385361
-0.025352 0.317203 0.030162
-0.057152 0.292153 0.013513
-0.141269 0.000752 0.210472
-0.141304 -0.008300 0.211741
-0.141803 -0.044716 0.204348
-0.141706 -0.041905 0.222153
-0.142394 -0.062277 0.191256
-0.057067 0.047127 0.136880
-0.056232 0.018068 0.138719
-0.243235 0.448284 -0.131584
0.198489 0.000964 0.093712
-0.202806 0.445363 -0.099656
0.004112 -0.165359 0.385928
-0.019384 -0.198019 0.030953
-0.027917 -0.182637 0.029737
-0.017106 -0.176308 0.032682
-0.000491 -0.441015 0.395317
0.330620 0.401409 -0.127331
0.331220 0.365869 -0.113499
0.332937 0.351717 -0.138519
0.114745 -0.282686 -0.329456
0.110229 -0.284704 -0.331411
-0.074711 -0.144574 0.138603
0.168682 -0.202251 0.106395
0.183597 -0.186567 0.102211
-0.129727 -0.138063 0.325995
-0.131816 -0.143807 0.294866
0.229924 -0.362443 0.080703
-0.263319 0.447578 0.064593
-0.277286 0.446835 0.068718
0.080195 0.271167 -0.336744
-0.333317 0.342781 0.219846
-0.139768 0.422027 -0.178818
-0.139082 0.424899 -0.182775
-0.334062 0.372070 0.229766
0.221595 -0.387508 -0.237452
-0.062311 0.202682 0.008267
-0.064703 0.210668 0.007274
-0.334491 0.338972 0.213687
-0.335863 0.356944 0.189527
-0.335888 0.363373 0.186394
-0.332886 0.294870 0.085890
0.122890 -0.319869 -0.324752
0.117379 -0.301115 -0.326599
-0.077093 -0.222014 -0.002065
-0.074199 -0.233140 -0.000835
-0.077061 -0.219339 -0.002246
-0.332144 0.227908 0.037256
-0.331833 0.229058 0.062803
-0.331776 0.213671 0.124787
-0.331524 0.188222 0.146287
0.194028 0.021089 -0.382772
0.193096 0.015227 -0.384092
-0.122803 -0.408354 -0.064795
-0.331382 0.247774 0.098597
-0.333354 -0.418954 -0.316567
-0.331364 0.298829 -0.034857
-0.330937 0.275853 -0.039141
-0.331674 0.290044 -0.028628
0.001884 0.263885 -0.331412
-0.332043 0.301615 -0.011751
-0.330857 0.408936 -0.005826
-0.329033 -0.052977 0.379930
-0.330724 -0.054760 0.339614
-0.333082 -0.176260 0.321316
-0.333833 -0.157930 0.323886
-0.331627 0.409401 -0.046373
-0.336352 0.393120 -0.041092
-0.318621 -0.049648 0.410441
-0.335789 0.377711 -0.041576
-0.331562 0.222264 0.001400
-0.331414 0.227921 -0.018950
-0.332886 -0.096465 0.097857
-0.332284 -0.229711 0.130144
-0.332385 -0.224065 0.138699
0.063373 0.275636 -0.338823
0.197604 0.034711 -0.380954
0.329073 0.411024 -0.143724
-0.334334 -0.006405 -0.387222
-0.334453 -0.001492 -0.388902
0.150305 -0.314942 0.115476
0.163380 -0.321511 0.111862
-0.334668 -0.048737 -0.115211
-0.333609 -0.065617 -0.128525
-0.136396 -0.219667 -0.155062
-0.137962 -0.227723 -0.172115
-0.135044 -0.198907 -0.171646
-0.329461 0.217341 -0.200583
-0.332345 0.134406 -0.194409
-0.333013 0.156570 -0.178362
-0.332741 -0.045825 -0.163278
-0.333442 0.103955 -0.162801
-0.334604 0.082548 -0.149599
-0.333632 0.038702 -0.184290
-0.333313 0.052275 -0.183021
-0.332642 0.027205 -0.208117
-0.131364 -0.184355 -0.206241
-0.134893 -0.188858 -0.187144
-0.332898 0.008672 -0.172027
-0.323675 -0.059307 0.400872
-0.140828 -0.015823 0.190793
0.083418 -0.363892 -0.336813
0.089433 -0.356508 -0.334738
-0.332966 0.137810 -0.171814
-0.332786 0.118217 -0.177627
-0.120560 -0.155632 -0.232634
-0.129078 -0.185743 -0.212614
-0.113654 -0.175701 -0.239749
-0.309856 0.089079 -0.416720
-0.318149 0.090015 -0.412854
-0.330787 0.109237 -0.225530
-0.330096 0.145304 -0.212330
-0.331113 0.116865 -0.203078
-0.330784 0.134587 -0.211313
-0.335935 0.166214 -0.344046
-0.041425 0.147790 0.136163
0.070020 -0.286716 -0.339905
0.030481 0.425472 -0.346470
0.331271 -0.363775 -0.095822
0.333470 -0.329076 -0.142606
0.100002 -0.416585 -0.338676
-0.140302 0.255869 0.247167
-0.332122 0.082585 -0.260786
-0.308153 0.194698 -0.416726
-0.048181 -0.442617 -0.374832
-0.099298 -0.162585 -0.262299
-0.093560 -0.190528 -0.271879
-0.333373 -0.086930 -0.142600
-0.333548 -0.074111 -0.135488
-0.333244 -0.078912 -0.146077
-0.140568 0.317546 0.228713
-0.035679 -0.255670 0.333818
0.039137 -0.282833 -0.335611
-0.164630 -0.388204 -0.426525
-0.119640 -0.153098 -0.422308
-0.121302 -0.152914 -0.422597
-0.154233 -0.186608 -0.423976
-0.139356 -0.188999 -0.422897
-0.144183 -0.151687 -0.422796
0.058407 0.409690 -0.336815
0.030887 0.423196 -0.344993
-0.305847 -0.438696 -0.206802
-0.140013 0.172110 0.285305
-0.138037 0.158411 0.303967
-0.138430 0.168532 0.303237
-0.250777 -0.142791 -0.425539
-0.258199 -0.138893 -0.425099
-0.265395 -0.144119 -0.423377
-0.029063 0.283745 -0.314032
0.014165 -0.280786 -0.327942
-0.220476 -0.019581 -0.425309
-0.218299 -0.017157 -0.425207
-0.315158 0.369292 0.419852
-0.308799 0.325187 0.420324
-0.105072 -0.056624 -0.424046
-0.130531 -0.055898 -0.423343
-0.182646 -0.268842 0.211941
-0.156572 -0.295675 0.202271
-0.131196 -0.086375 -0.424043
-0.194311 -0.107921 -0.426125
-0.224184 -0.097447 -0.425562
-0.136033 0.355222 0.341153
-0.136701 0.359505 0.333879
-0.053723 0.299516 -0.299440
-0.028555 0.284086 -0.313978
-0.031773 0.302829 -0.312336
-0.254170 -0.148493 -0.425274
-0.237979 -0.156746 -0.426498
-0.222102 -0.142636 -0.425844
-0.337527 0.278509 -0.365572
-0.338910 0.305615 -0.360135
-0.336627 0.382901 -0.381202
-0.337247 0.379392 -0.359611
-0.330264 0.261063 -0.395707
-0.138168 0.349618 0.308807
-0.327254 0.326942 -0.403659
-0.072150 -0.369068 0.321869
-0.166238 0.438901 0.236286
-0.283356 0.379484 -0.425479
-0.279382 0.394211 -0.423307
-0.245355 0.375314 -0.428375
-0.061946 0.302309 -0.292523
-0.073314 0.270085 -0.284867
-0.052108 0.309782 -0.299903
-0.242979 0.411153 -0.424294
-0.223352 0.422123 -0.419912
-0.137245 -0.236518 0.319795
-0.266843 -0.016307 0.426015
-0.239573 -0.016821 0.426085
-0.257602 -0.013120 0.426091
-0.230584 0.260335 -0.426758
-0.255891 0.261474 -0.425109
-0.255402 0.257896 -0.424990
-0.221039 0.444159 0.231322
-0.242160 0.442733 0.250728
-0.306866 -0.311635 0.200744
-0.304588 -0.306199 0.200690
-0.083306 0.293471 -0.274370
-0.073468 0.303033 -0.283698
-0.083667 0.304605 -0.274500
-0.255673 0.450367 0.370388
-0.259402 0.448021 0.349689
-0.275272 0.450551 0.367647
-0.242468 0.447512 0.166749
-0.134429 0.350825 0.380549
-0.145892 0.331456 0.406951
-0.026226 -0.052253 0.134251
-0.008455 -0.051091 0.130628
-0.134987 0.337626 0.377733
0.168040 -0.351909 -0.296872
0.180243 -0.334765 -0.288983
-0.055401 -0.164665 0.299322
-0.062288 -0.165920 0.303972
-0.065345 -0.300834 -0.289344
0.186848 -0.361399 -0.283238
-0.179857 0.438991 0.173996
-0.181634 0.438781 0.178346
-0.004536 0.426114 -0.414238
-0.035589 0.397079 -0.428112
-0.170697 0.437580 0.206265
-0.058436 -0.417002 -0.301272
-0.288616 0.411106 0.423476
-0.279949 0.427223 0.418044
-0.251502 0.320172 0.427550
0.319849 0.416597 -0.084391
0.325824 0.419705 -0.129720
-0.104328 0.276277 -0.253411
-0.099019 0.282681 -0.259610
-0.095103 0.294930 -0.262169
0.209350 -0.337267 -0.026231
0.214812 -0.361900 -0.033780
0.206334 -0.349825 -0.378083
0.198812 -0.197847 0.091038
-0.149302 0.190411 0.408388
-0.113036 -0.280607 -0.240639
0.300508 -0.417639 -0.261715
0.305391 -0.404789 -0.258967
0.296467 -0.415314 -0.271907
-0.297200 -0.441647 -0.281492
-0.293617 -0.443857 -0.292550
-0.330410 -0.368615 0.369072
-0.242076 0.442544 0.231700
-0.240386 0.442130 0.233695
0.304569 -0.149273 -0.028320
0.128072 -0.422794 -0.331271
0.150602 -0.421475 -0.315177
-0.245590 0.442898 0.230181
-0.214298 0.443707 0.211951
-0.111880 -0.365241 0.232870
-0.124585 0.294830 -0.217601
-0.123531 0.295018 -0.219953
0.251736 -0.154849 0.048961
0.262726 -0.140912 0.041117
0.286102 -0.155542 0.011646
0.278884 -0.148176 0.020831
0.270462 -0.094731 0.030628
0.257443 -0.067213 0.043843
-0.121078 -0.211929 -0.423187
-0.145223 -0.208724 -0.423554
0.269498 -0.186354 0.028281
0.282253 -0.053977 0.012841
0.283202 0.251390 0.009645
0.280275 0.074755 0.019643
-0.133026 0.334331 -0.194027
-0.324972 -0.215717 0.408448
-0.030742 -0.345893 -0.311740
0.298240 -0.413459 -0.266996
0.289189 -0.424349 -0.283220
0.081402 -0.201546 0.138603
0.097494 -0.326668 0.129337
0.179104 -0.400062 -0.286968
0.199910 -0.366267 -0.266958
-0.334114 0.379888 0.215452
0.330408 0.382216 -0.191666
0.326277 0.368145 -0.209645
0.329741 0.384334 -0.194585
0.184061 0.015974 0.102666
0.316873 0.422828 -0.085476
0.072018 0.256051 0.129591
0.046568 0.257227 0.129992
-0.331835 -0.194683 -0.237666
0.259075 0.412857 -0.329923
0.273698 0.365687 -0.318552
0.011188 -0.159864 -0.422079
-0.312302 0.442562 0.351349
0.044325 -0.096305 -0.423540
0.060501 -0.090112 -0.421807
-0.315835 0.435672 0.364578
-0.096804 0.005214 -0.423009
-0.077061 0.024107 -0.424181
-0.292669 0.445665 0.380119
0.199509 -0.393508 -0.018720
-0.136488 0.336560 -0.167888
-0.138117 0.337054 -0.154178
0.178912 -0.162728 0.006250
-0.332767 0.324935 0.244419
-0.079158 0.137593 -0.423983
0.331451 -0.341313 -0.181454
-0.333950 0.332472 0.164875
-0.334080 0.306070 0.177713
-0.334257 0.338504 0.185870
0.024558 0.125672 -0.424435
0.007285 0.108794 -0.422833
-0.251015 -0.445181 -0.132378
-0.237128 -0.445041 -0.144761
-0.332450 0.072667 0.279498
-0.182028 -0.442741 -0.176265
-0.160463 -0.436284 -0.165013
-0.335237 -0.186205 -0.313849
-0.045489 -0.008712 -0.423773
-0.027436 -0.008036 -0.420989
0.021190 0.011614 -0.422121
0.126115 -0.125132 -0.411880
-0.332601 -0.080766 0.205550
0.049307 -0.191244 -0.420785
-0.138182 0.335908 -0.154897
-0.136661 0.347581 -0.131823
-0.135896 0.349872 -0.125675
-0.247660 -0.444161 -0.151385
-0.245723 -0.444703 -0.142072
-0.258494 -0.444002 -0.127491
-0.320549 -0.428517 -0.155418
-0.257289 -0.444134 -0.155538
0.334493 -0.365632 -0.176489
0.332180 -0.366935 -0.187875
-0.136563 -0.319207 -0.120664
-0.332583 0.148845 0.301669
-0.123777 -0.436198 -0.041539
-0.125391 -0.435999 -0.041546
-0.238494 0.447871 -0.168725
-0.254642 0.448494 -0.190510
-0.245469 0.448643 -0.161337
0.134518 0.142020 -0.412405
0.192056 -0.212798 -0.386336
0.326051 0.024451 -0.196046
0.326189 0.022646 -0.196504
-0.130241 0.342491 -0.095550
-0.134732 0.354701 -0.113954
-0.332956 -0.097313 0.239289
-0.329909 -0.073579 0.246334
0.197629 -0.078329 -0.382574
0.206970 -0.081524 -0.376491
-0.163593 -0.446902 -0.047100
-0.131112 -0.439023 -0.042344
0.129436 0.028787 -0.412375
-0.269787 -0.444551 0.058311
-0.260328 -0.445305 0.052946
-0.252483 -0.447224 0.071950
-0.245557 -0.444391 -0.166526
-0.253097 -0.443960 -0.155633
