-0.287418 -0.039843 0.084494
-0.293612 -0.034141 0.085654
-0.277599 -0.041422 0.082452
-0.284311 -0.031814 0.086094
-0.192344 -0.038036 0.081013
0.044064 -0.036635 0.087518
0.438055 -0.031276 0.085846
-0.295707 -0.029754 0.086529
-0.278788 -0.035101 0.083758
0.063037 -0.025329 0.085372
-0.475918 -0.023483 0.087314
-0.397678 -0.022338 0.080546
-0.173200 -0.032048 0.097191
0.064325 -0.025730 0.085219
0.074414 -0.030981 0.083619
0.073763 -0.027463 0.084590
-0.407111 -0.027973 0.083818
-0.286966 -0.014924 0.089249
-0.281086 -0.022471 0.086676
0.087893 -0.029920 0.080810
0.436904 -0.028435 0.087868
-0.307656 -0.002565 0.086344
-0.186264 -0.008682 0.090163
0.073031 -0.040365 0.079961
0.131444 -0.015787 0.090094
0.437353 -0.039519 0.083380
-0.290178 -0.032187 0.086250
-0.296855 -0.026802 0.085574
0.088923 -0.019398 0.081967
-0.317918 -0.017856 0.076374
-0.300555 -0.020544 0.086786
-0.178197 -0.019345 0.093801
0.438983 -0.001761 0.088594
-0.410037 -0.003594 0.092376
-0.209725 -0.008294 0.077267
0.091329 -0.023525 0.080792
0.119556 -0.018443 0.081187
0.133866 -0.013751 0.092570
0.444893 -0.011437 0.078732
-0.309613 -0.018155 0.083250
0.088575 -0.016119 0.081989
0.088819 -0.015879 0.081903
0.438788 -0.004591 0.088970
-0.321828 -0.019879 0.072891
0.090351 -0.011903 0.082427
0.107927 -0.023271 0.078355
0.130784 -0.025383 0.088479
0.122573 -0.004738 0.084369
-0.476038 -0.011524 0.096442
-0.194099 -0.006233 0.084888
-0.177564 -0.027075 0.093597
0.090000 -0.005726 0.082677
0.130916 -0.005019 0.089983
0.441135 -0.011570 0.086116
-0.410360 -0.002362 0.092594
-0.280666 0.002111 0.088978
0.099904 0.006110 0.081388
0.123401 0.004114 0.084981
0.438506 -0.003200 0.087897
-0.396431 0.010505 0.083802
-0.407182 0.001269 0.089710
-0.300667 -0.006393 0.090056
0.084667 -0.004651 0.083280
0.129796 -0.002509 0.088372
0.443340 -0.009893 0.082120
-0.312959 -0.011285 0.081396
0.101034 -0.013648 0.080237
0.442296 -0.011621 0.083672
-0.186440 0.000017 0.090051
0.096852 0.013954 0.080590
0.132243 0.002906 0.089957
0.122701 0.005831 0.084007
0.439311 -0.004492 0.087574
-0.475661 0.003817 0.087612
-0.408809 0.017468 0.090488
-0.196441 -0.001333 0.084128
0.065302 0.002067 0.085354
0.090149 -0.000703 0.082986
0.096427 -0.001281 0.081497
0.441281 0.006531 0.084578
-0.475559 -0.004914 0.095321
-0.321036 0.011132 0.077449
-0.263454 -0.011322 0.078692
0.086317 0.004519 0.082877
0.086987 0.010840 0.081754
0.095547 0.021766 0.079054
0.099525 0.011643 0.081086
0.123740 0.010828 0.084676
-0.475165 0.006966 0.103722
-0.398407 0.014267 0.084179
-0.381838 0.016647 0.078639
-0.194533 0.008762 0.085700
0.083596 -0.004388 0.083474
-0.328700 0.011453 0.074927
0.084260 0.012161 0.081653
0.100745 0.012149 0.080861
0.441179 0.023274 0.081216
0.065823 0.015309 0.084290
0.080076 0.005483 0.083675
0.084600 0.008938 0.082620
0.084953 0.017401 0.080244
0.439989 0.016302 0.085902
0.069088 0.016719 0.082720
0.128030 0.022904 0.083521
0.442724 0.029596 0.078779
-0.398924 0.026366 0.082610
-0.327981 0.010197 0.074681
0.064922 0.021346 0.082522
0.129579 0.040167 0.076056
-0.315885 0.029565 0.080070
0.431345 0.041967 0.092010
-0.398994 0.026687 0.082496
-0.190801 0.039475 0.090908
-0.195675 0.014660 0.085945
0.055127 0.028450 0.082068
0.128541 0.016000 0.085766
0.439621 0.013154 0.085703
-0.195940 0.013669 0.085525
-0.402275 0.029186 0.084163
-0.390227 0.029206 0.078613
-0.316899 0.022981 0.080193
-0.196109 0.029739 0.086982
0.054908 0.019443 0.085598
0.048766 0.029440 0.085340
0.051071 0.033039 0.082094
0.442256 0.028859 0.079174
-0.476160 0.045829 0.096617
-0.325104 0.031271 0.074922
-0.194290 0.031195 0.088288
0.133271 0.020451 0.088241
-0.309582 0.044605 0.080636
-0.393285 0.039941 0.077549
-0.202903 0.052040 0.084944
-0.204380 0.056855 0.084622
-0.316148 0.049411 0.074088
-0.290239 0.035091 0.093158
-0.302234 0.039281 0.087718
-0.299460 0.033211 0.089715
-0.296520 0.054846 0.085344
0.036823 0.038269 0.088504
-0.409417 0.056857 0.084406
-0.297116 0.037311 0.089724
0.051518 0.039995 0.078571
0.433544 0.057229 0.080199
-0.475915 0.045197 0.077927
-0.213705 0.031605 0.080034
0.438458 0.042130 0.081213
-0.476851 0.062041 0.101554
-0.413360 0.046077 0.090848
-0.293522 0.044179 0.088524
-0.271062 0.046566 0.084883
-0.199615 0.048821 0.086521
-0.296587 0.037334 0.090066
-0.205650 0.054422 0.083925
0.029589 0.057943 0.084553
0.136916 0.045623 0.077490
0.151334 0.061240 0.089679
0.425945 0.062129 0.084312
-0.278282 0.058293 0.084289
-0.210792 0.062331 0.080305
-0.300183 0.060273 0.081979
-0.280735 0.054948 0.087016
0.426336 0.076036 0.071649
-0.407782 0.066196 0.077595
-0.199862 0.055023 0.087084
0.156754 0.062224 0.098623
-0.285848 0.063420 0.084139
0.427381 0.056181 0.086772
-0.195367 0.077754 0.086922
0.150586 0.064077 0.087555
0.416383 0.067513 0.087330
-0.413809 0.081659 0.079175
0.152819 0.076837 0.078377
0.427892 0.072490 0.073125
-0.189528 0.072383 0.093511
0.167319 0.084112 0.087590
0.416716 0.071886 0.083316
-0.471164 0.096030 0.090485
0.410915 0.059929 0.097185
-0.420814 0.075329 0.091152
-0.422970 0.079938 0.091474
0.013668 0.085750 0.083928
-0.202818 0.084786 0.079405
-0.473686 0.098387 0.086905
-0.192059 0.081653 0.089448
-0.470110 0.088846 0.102831
-0.425138 0.082992 0.092764
0.168010 0.082764 0.091157
-0.427615 0.092603 0.090353
-0.434467 0.113887 0.070815
0.164172 0.086414 0.078997
0.386083 0.089951 0.087748
-0.471847 0.099227 0.088872
0.185787 0.102700 0.090265
0.376721 0.091620 0.091643
-0.186945 0.093862 0.088024
0.187827 0.105977 0.080590
-0.428708 0.096391 0.086059
-0.178864 0.100171 0.094478
0.184812 0.101650 0.080798
0.367038 0.099909 0.089929
0.378760 0.104823 0.078210
-0.439048 0.101796 0.094161
0.002161 0.102400 0.089112
0.201039 0.106949 0.082377
0.191199 0.102396 0.091955
0.193348 0.111711 0.086889
0.211566 0.109482 0.087024
0.207550 0.111092 0.087663
0.222775 0.112716 0.096277
0.207879 0.120893 0.076129
0.211875 0.114135 0.094092
-0.467766 0.113125 0.083303
-0.464769 0.115609 0.083280
0.221241 0.118199 0.091022
0.355669 0.111692 0.090197
0.359820 0.109981 0.087209
-0.458484 0.104622 0.102396
-0.443538 0.112580 0.085022
-0.447892 0.108569 0.093675
0.364284 0.113325 0.081346
-0.001812 0.122923 0.081889
0.206676 0.110364 0.090156
-0.454697 0.115306 0.086951
0.207150 0.119610 0.068854
0.218524 0.115784 0.090656
0.350298 0.122893 0.088508
0.353672 0.140567 0.072658
-0.011342 0.136837 0.090184
0.218484 0.130434 0.081986
0.210851 0.127973 0.078964
0.220432 0.140011 0.079435
0.334556 0.142146 0.095467
-0.161925 0.143793 0.086854
0.257846 0.130425 0.093374
0.234462 0.129881 0.088231
0.249312 0.133917 0.088608
0.273457 0.133801 0.090004
0.337433 0.134126 0.095127
0.231145 0.133365 0.087695
0.242115 0.136116 0.085638
0.250240 0.144618 0.074382
0.275079 0.139437 0.084281
0.262518 0.141560 0.080971
-0.176648 0.122213 0.073559
0.252116 0.137430 0.084361
0.283163 0.138906 0.089359
0.292775 0.156782 0.081022
0.335783 0.144937 0.086371
-0.160456 0.146894 0.087865
0.286910 0.149345 0.083494
0.339011 0.153212 0.076333
0.287397 0.152109 0.085221
0.331206 0.153415 0.089676
0.329872 0.154907 0.085751
0.320310 0.156720 0.090127
0.311923 0.162258 0.086440
0.327685 0.163142 0.082559
-0.017492 0.154359 0.088739
0.294032 0.151454 0.085502
0.320938 0.161910 0.083604
0.328216 0.158344 0.083363
-0.023320 0.165253 0.089705
0.291347 0.162634 0.073261
0.326684 0.168133 0.074002
-0.017883 0.154603 0.088974
0.287631 0.151906 0.085933
-0.157807 0.176262 0.085120
-0.158401 0.176643 0.083613
-0.158120 0.182332 0.084589
-0.016135 0.174729 0.070220
-0.034565 0.185488 0.088783
-0.041459 0.202791 0.077546
-0.157407 0.214071 0.084340
-0.162814 0.186791 0.071684
-0.038816 0.198837 0.079489
-0.051595 0.208349 0.081730
-0.150827 0.219810 0.096035
-0.157946 0.201487 0.086399
-0.159452 0.207466 0.081733
-0.079454 0.218800 0.091837
-0.084611 0.225982 0.085174
-0.103327 0.232555 0.090035
-0.090843 0.219617 0.097610
-0.152894 0.245035 0.077834
-0.101011 0.227699 0.095709
-0.141609 0.236902 0.096389
-0.130023 0.234359 0.100261
-0.149279 0.243523 0.083875
-0.132887 -0.203191 0.083793
-0.135305 -0.195257 0.085644
-0.134942 -0.189594 0.090626
-0.133867 -0.199233 0.084295
-0.143271 -0.187564 0.086436
-0.132906 -0.197325 0.084930
-0.137188 -0.199512 0.084974
-0.118039 -0.200472 0.082479
-0.117959 -0.198761 0.083395
-0.094530 -0.189568 0.086617
-0.094191 -0.176118 0.094447
-0.085808 -0.184332 0.086706
-0.137243 -0.185458 0.090347
-0.092049 -0.172123 0.095821
-0.146685 -0.169154 0.091574
-0.057729 -0.170910 0.083369
-0.062266 -0.156955 0.093543
-0.144896 -0.174961 0.090844
-0.042190 -0.154398 0.082323
-0.053309 -0.158540 0.087799
-0.048146 -0.155758 0.085891
-0.150487 -0.165573 0.077894
-0.148447 -0.144176 0.099661
-0.032139 -0.139704 0.082846
-0.155696 -0.145437 0.080239
-0.020437 -0.127796 0.080925
-0.016214 -0.114670 0.087682
0.306637 -0.119684 0.086831
0.305796 -0.122980 0.083175
0.331123 -0.117986 0.084232
-0.020153 -0.117497 0.088082
0.277394 -0.122098 0.078856
0.242207 -0.116700 0.082909
0.306795 -0.119240 0.086700
0.253049 -0.117429 0.073459
0.255577 -0.103752 0.096585
0.253237 -0.112425 0.086283
0.253177 -0.116305 0.077739
0.279164 -0.112967 0.094215
0.277082 -0.111817 0.094831
0.280095 -0.111710 0.094401
0.278700 -0.120163 0.082919
0.283309 -0.108178 0.094637
0.291443 -0.122576 0.081171
0.284666 -0.121802 0.083082
0.314060 -0.112008 0.094112
0.204781 -0.110773 0.089159
0.195927 -0.100036 0.086157
0.219881 -0.115503 0.085838
0.222523 -0.115324 0.082783
0.229666 -0.113595 0.089450
0.234259 -0.115438 0.086348
0.279089 -0.118231 0.084857
0.279165 -0.121023 0.082839
0.205162 -0.103140 0.096237
0.229205 -0.113586 0.089512
0.241635 -0.120339 0.069510
0.222374 -0.115452 0.083068
-0.014992 -0.109711 0.090520
0.196852 -0.100631 0.087591
0.358010 -0.105806 0.086644
0.361806 -0.106166 0.085231
0.337686 -0.122754 0.077790
0.349495 -0.101538 0.096874
0.363612 -0.098294 0.091847
-0.166487 -0.108443 0.081965
-0.005268 -0.104600 0.085979
-0.167297 -0.098008 0.087750
0.210351 -0.113871 0.079045
0.378510 -0.096162 0.088177
-0.465854 -0.091901 0.090443
-0.444109 -0.097404 0.078831
-0.455242 -0.103791 0.081064
-0.454059 -0.104348 0.081334
-0.449119 -0.102677 0.076011
0.193888 -0.089665 0.092322
0.380181 -0.104174 0.080817
-0.465572 -0.091034 0.091961
-0.167338 -0.081516 0.094158
0.000086 -0.091418 0.091939
-0.009445 -0.093319 0.096771
0.388601 -0.086470 0.088701
-0.467397 -0.067976 0.105029
0.392328 -0.082966 0.088731
-0.443924 -0.084996 0.089438
0.186825 -0.089641 0.091632
-0.470728 -0.095898 0.076612
-0.442111 -0.096369 0.079890
0.399646 -0.082819 0.082921
-0.467676 -0.091331 0.088376
-0.438505 -0.087585 0.081037
0.188613 -0.090167 0.089119
0.412749 -0.075877 0.082865
-0.439942 -0.078376 0.093057
-0.172121 -0.079537 0.090285
0.177173 -0.083250 0.090714
0.175708 -0.080644 0.093258
0.399353 -0.082708 0.081959
0.008078 -0.083635 0.089307
-0.175735 -0.076764 0.086895
0.160228 -0.071238 0.090469
0.388711 -0.087215 0.087313
-0.438263 -0.076298 0.091208
0.416977 -0.079887 0.077896
0.152615 -0.082539 0.065541
0.403218 -0.076822 0.092396
0.407843 -0.074808 0.091219
0.417394 -0.077133 0.084800
0.413727 -0.076348 0.085145
0.421268 -0.067814 0.103462
0.418693 -0.080758 0.107793
-0.423541 -0.067910 0.081307
0.022046 -0.066090 0.087309
0.146285 -0.065268 0.077275
0.157381 -0.076090 0.082022
0.430462 -0.070601 0.084086
-0.421729 -0.059402 0.086248
0.143661 -0.061899 0.077672
-0.429543 -0.071494 0.088680
0.154393 -0.074289 0.079655
0.431631 -0.041020 0.098907
-0.173137 -0.062089 0.092626
-0.175937 -0.076209 0.086743
0.039801 -0.052634 0.084297
0.039331 -0.059087 0.080462
0.147757 -0.052488 0.098007
-0.414231 -0.044660 0.084936
-0.182478 -0.053128 0.085977
0.437561 -0.038411 0.083496
0.137193 -0.053734 0.078625
-0.177691 -0.051091 0.090420
0.046040 -0.043834 0.085659
-0.477058 -0.038308 0.089041
0.139243 -0.036044 0.096254
0.435488 -0.028388 0.092008
-0.271576 -0.036852 0.080026
0.041216 -0.033158 0.088737
-0.420528 -0.055031 0.087842
-0.285599 -0.031381 0.086364
-0.285788 -0.035837 0.085369
0.132049 -0.039570 0.085023
-0.285873 -0.026858 0.087354
0.130152 -0.025811 0.087610
-0.290419 -0.035260 0.086726
-0.181906 -0.038585 0.088632
0.047866 -0.040607 0.085450
0.437016 -0.033103 0.086663
-0.476946 -0.034684 0.085958
-0.419558 -0.022068 0.098907
-0.281385 -0.021902 0.086671
-0.281915 -0.033733 0.084279
0.057477 -0.027678 0.085044
0.068158 -0.025481 0.083991
0.139898 -0.034371 0.097494
0.061832 -0.027538 0.085227
0.123296 -0.023903 0.082667
0.436422 -0.030142 0.089425
-0.397223 -0.034090 0.076392
-0.279522 -0.022576 0.085410
0.066972 -0.028859 0.083914
0.076823 -0.021226 0.083718
-0.476375 -0.028507 0.095360
-0.174818 -0.034312 0.095516
0.052629 -0.005762 0.088242
0.072186 -0.029206 0.082458
0.131996 -0.014494 0.089941
-0.300476 -0.012186 0.088487
-0.291813 -0.003868 0.092296
-0.265973 -0.010881 0.080962
-0.197061 -0.015234 0.082174
-0.185839 -0.013649 0.088973
0.065363 -0.026595 0.084299
0.437070 -0.022068 0.091244
-0.301735 -0.011849 0.087330
-0.299265 -0.014721 0.089680
0.134744 -0.017682 0.093570
0.442675 -0.015159 0.082957
-0.475861 -0.012037 0.096864
-0.401323 -0.018017 0.083549
-0.309273 -0.009027 0.083981
-0.269927 -0.028193 0.081410
0.073181 -0.025366 0.083577
0.124608 -0.023521 0.083729
0.437596 -0.031693 0.087439
0.086965 -0.017497 0.081970
0.084246 -0.021872 0.081765
0.129259 -0.014308 0.086768
-0.315610 -0.000056 0.080507
0.089058 -0.010585 0.083023
0.436209 -0.028871 0.089859
-0.475195 -0.001762 0.070871
0.081240 -0.000879 0.083515
0.075865 -0.005979 0.084162
0.070268 0.012703 0.083459
0.438773 -0.004663 0.088175
-0.184500 -0.006129 0.091019
-0.188009 -0.007762 0.088974
0.062973 -0.013499 0.085803
0.131799 -0.012707 0.090332
0.439279 -0.004185 0.087578
-0.281350 0.003705 0.090639
0.072527 0.002207 0.084320
0.071834 0.005452 0.084287
0.062504 0.003872 0.085749
0.123811 0.004251 0.084947
-0.317147 0.008452 0.080066
-0.308586 0.005164 0.085805
-0.208348 0.004774 0.078779
0.442132 -0.008175 0.083171
-0.395735 0.017358 0.082962
0.080407 0.008735 0.082671
0.083355 0.010336 0.082180
0.439262 -0.004102 0.087563
-0.399496 0.001663 0.085721
-0.310935 0.024137 0.083267
-0.186224 0.016015 0.091209
0.140308 0.014684 0.097544
0.060079 0.006503 0.085909
0.136471 0.025990 0.089503
0.435921 0.009004 0.094741
-0.476301 0.020789 0.101945
-0.402499 0.005730 0.086991
-0.320832 0.012348 0.077901
-0.307836 0.008154 0.086512
-0.255566 -0.000364 0.071763
0.051569 0.008114 0.089073
0.053629 0.019479 0.086182
0.063661 0.006512 0.085175
0.435725 0.009477 0.095014
0.046755 0.016231 0.088900
0.066557 0.020176 0.082120
-0.265998 0.034651 0.083466
0.059338 0.018201 0.084360
-0.194614 0.024071 0.087199
0.441159 0.023262 0.081222
-0.399043 0.026672 0.082669
-0.304112 0.030333 0.087321
0.041050 0.026201 0.089471
-0.308244 0.026287 0.085714
-0.199847 0.030210 0.084833
0.050114 0.023887 0.086588
0.136718 0.018244 0.091963
-0.400447 0.038040 0.081269
-0.255919 0.032388 0.073902
-0.301998 0.037931 0.087979
-0.292643 0.035179 0.092581
-0.290691 0.033093 0.092419
-0.289801 0.040811 0.091244
0.041200 0.027180 0.089042
0.432840 0.032064 0.094093
-0.308251 0.008528 0.086517
-0.314113 0.033613 0.081989
-0.299597 0.037563 0.088113
-0.304740 0.045946 0.085091
-0.258374 0.061462 0.073415
0.136758 0.021343 0.091288
0.428906 0.049021 0.088604
-0.199971 0.051588 0.086793
0.136447 0.034980 0.083039
-0.289058 0.031912 0.092539
-0.401104 0.037783 0.082153
-0.269059 0.043023 0.085039
0.141578 0.038295 0.091639
-0.277471 0.045562 0.088349
-0.203484 0.051575 0.084485
0.147347 0.049664 0.093256
0.425281 0.050083 0.092838
0.029300 0.052997 0.086561
0.036355 0.039275 0.088319
0.149466 0.045737 0.099553
-0.415225 0.042426 0.093656
-0.224344 0.062074 0.075910
0.423180 0.048177 0.096775
-0.477638 0.059065 0.092648
-0.290914 0.064443 0.083548
-0.278805 0.061369 0.084598
-0.278191 0.056376 0.086424
-0.279453 0.052632 0.087121
-0.196679 0.064149 0.088336
-0.201617 0.063845 0.085607
-0.476851 0.062257 0.098526
0.419408 0.057860 0.093438
0.414176 0.070501 0.086728
-0.272047 0.062840 0.079534
-0.275654 0.053049 0.084929
-0.202149 0.061831 0.084623
0.148322 0.058890 0.087909
0.426401 0.060178 0.085761
-0.424820 0.068960 0.098097
-0.196118 0.067091 0.088365
0.018089 0.054015 0.093634
0.155345 0.072787 0.086559
0.416148 0.061965 0.092256
0.155574 0.073155 0.086260
0.024914 0.067332 0.084226
0.151585 0.062893 0.089281
0.423446 0.060516 0.087649
0.422671 0.066601 0.084030
0.410855 0.071644 0.088241
-0.478652 0.078578 0.077798
0.404464 0.072448 0.092238
0.158829 0.078594 0.084983
0.401711 0.085723 0.079923
-0.191785 0.080971 0.089978
0.161235 0.079822 0.084699
0.399621 0.085036 0.083540
0.017614 0.064605 0.091305
0.011561 0.081633 0.089709
0.153053 0.073538 0.081896
0.389364 0.077943 0.097393
-0.430991 0.086576 0.096286
-0.204243 0.084382 0.077154
0.170544 0.091886 0.079196
-0.194722 0.081094 0.086023
0.001996 0.082391 0.097308
0.161880 0.077965 0.086539
0.392908 0.095226 0.077842
0.005594 0.097001 0.088436
-0.424055 0.086349 0.090233
0.178903 0.091156 0.095605
0.167759 0.081933 0.091636
0.173554 0.094027 0.078144
-0.443143 0.091740 0.105495
0.007312 0.081287 0.093457
0.167643 0.083039 0.089757
0.004471 0.095700 0.090456
0.181019 0.102048 0.079214
-0.467531 0.103004 0.091697
-0.177325 0.096323 0.097621
0.201525 0.105457 0.094702
0.372551 0.111722 0.076448
0.381182 0.092108 0.088005
-0.459499 0.106771 0.095350
0.191145 0.102099 0.092154
0.205030 0.102591 0.099090
0.206337 0.106747 0.091007
0.211424 0.105892 0.099361
0.208312 0.110363 0.089938
0.208182 0.114146 0.081289
0.215552 0.107222 0.097708
-0.468435 0.112446 0.079985
-0.437077 0.096245 0.097477
0.199501 0.105297 0.090890
0.204918 0.111741 0.087965
0.210232 0.109550 0.088282
0.370535 0.099561 0.087642
0.375104 0.109269 0.076456
0.360294 0.108146 0.087755
0.365497 0.105784 0.086140
-0.178558 0.110087 0.084189
-0.000139 0.122832 0.079271
-0.459418 0.107880 0.093902
-0.439654 0.113493 0.075344
0.205921 0.108329 0.091930
-0.007204 0.139259 0.082607
0.222087 0.115731 0.092185
0.352229 0.119382 0.088795
-0.168856 0.130498 0.082637
-0.002228 0.112068 0.089353
0.214329 0.123799 0.081875
0.221931 0.138385 0.083217
0.342880 0.138467 0.087489
0.337514 0.137213 0.094323
-0.159728 0.131112 0.099678
0.211534 0.127958 0.079354
0.222383 0.133962 0.083220
0.214202 0.125189 0.080291
0.231471 0.120476 0.098156
-0.009210 0.140899 0.085192
0.231695 0.119905 0.098455
0.272741 0.136019 0.085555
0.272207 0.131660 0.092573
0.268370 0.134355 0.088101
0.252016 0.134923 0.087891
0.250958 0.127241 0.095135
0.278222 0.136711 0.087663
-0.163541 0.152977 0.078017
0.248341 0.135508 0.085920
0.234016 0.132586 0.088987
0.352159 0.150303 0.068975
0.240448 0.124644 0.098133
0.267365 0.131986 0.091689
0.281431 0.147373 0.082162
0.341778 0.129457 0.096632
0.281583 0.140896 0.086362
0.280780 0.142235 0.083668
-0.007065 0.138752 0.082547
-0.011227 0.160092 0.076109
0.293374 0.150300 0.084630
0.327599 0.148518 0.097578
0.327115 0.151658 0.094246
0.298619 0.161638 0.074682
0.290384 0.152152 0.082677
0.308711 0.156646 0.087226
0.314562 0.153510 0.094188
0.317541 0.157269 0.090467
0.306315 0.163314 0.082006
0.293580 0.156315 0.079964
0.312901 0.166316 0.074799
0.330610 0.148582 0.090014
0.332801 0.161573 0.078019
0.319670 0.162958 0.079602
-0.023864 0.167270 0.089541
-0.018194 0.150418 0.092474
0.309720 0.156998 0.086930
0.306946 0.164285 0.080211
0.307553 0.163752 0.083769
-0.027749 0.177851 0.085807
-0.033774 0.176252 0.095163
-0.154416 0.185076 0.092345
-0.039962 0.198103 0.081556
-0.044428 0.191592 0.092837
-0.151546 0.202882 0.099939
-0.060424 0.216201 0.076783
-0.149342 0.221045 0.097029
-0.082067 0.218717 0.093636
-0.095889 0.230523 0.088583
-0.110167 0.236767 0.089471
-0.135571 0.243142 0.089375
-0.135751 0.240905 0.091583
-0.150937 0.242689 0.082715
-0.148890 0.247369 0.077979
-0.138258 0.237205 0.095975
-0.151707 0.239233 0.084533
-0.136478 -0.201159 0.084832
-0.126242 -0.186137 0.094726
-0.137971 -0.185984 0.090382
-0.131882 -0.197986 0.085289
-0.093903 -0.183695 0.090311
-0.114614 -0.201341 0.081673
-0.085069 -0.173289 0.092732
-0.084081 -0.171019 0.094063
-0.069895 -0.181876 0.082173
-0.137896 -0.151863 0.112670
-0.143749 -0.174001 0.095787
-0.145519 -0.156498 0.100635
-0.050603 -0.130369 0.102050
-0.152775 -0.140749 0.091262
-0.038216 -0.130664 0.093997
-0.034683 -0.125354 0.095822
-0.158122 -0.125946 0.087406
-0.015849 -0.127678 0.076349
0.310180 -0.114195 0.092933
0.330872 -0.122872 0.078073
0.251896 -0.113057 0.090523
0.270679 -0.111878 0.088943
0.253003 -0.113772 0.086584
0.256077 -0.115780 0.086137
0.264842 -0.113587 0.093439
0.270186 -0.119716 0.082154
0.269528 -0.119257 0.084873
0.322722 -0.127344 0.072640
0.309436 -0.118501 0.086715
0.346756 -0.105967 0.095173
0.315654 -0.116033 0.088869
0.204469 -0.108936 0.089315
0.226094 -0.110840 0.096554
0.209194 -0.112564 0.088737
0.219833 -0.114119 0.081526
0.229027 -0.113360 0.089758
0.229029 -0.113480 0.089883
0.280494 -0.118974 0.084627
0.287034 -0.105666 0.098499
0.299003 -0.114541 0.092894
0.297152 -0.117223 0.087978
0.299114 -0.124976 0.081436
0.308511 -0.115553 0.090693
0.310530 -0.111503 0.093952
0.338572 -0.102394 0.101723
0.232772 -0.101220 0.102667
0.209564 -0.103715 0.096823
0.226281 -0.108482 0.097871
0.241846 -0.107487 0.093531
0.318810 -0.112276 0.089739
0.200020 -0.112593 0.075145
0.347116 -0.101083 0.099715
-0.004957 -0.094514 0.093664
0.337731 -0.108311 0.096370
0.345310 -0.101496 0.100831
-0.157306 -0.115287 0.093448
0.199435 -0.108512 0.077836
0.347446 -0.106299 0.095531
0.363682 -0.097508 0.092751
0.360380 -0.107997 0.084252
0.359747 -0.095274 0.097325
0.200164 -0.096822 0.094009
0.386664 -0.089172 0.087473
0.375418 -0.099217 0.084974
0.191279 -0.094366 0.087694
-0.461703 -0.093613 0.091609
0.195966 -0.092845 0.091892
0.380030 -0.103160 0.081565
-0.165035 -0.096232 0.090323
0.385122 -0.085958 0.094598
0.012147 -0.085529 0.085103
0.182192 -0.085956 0.091291
0.389718 -0.081902 0.094316
0.385502 -0.083270 0.097831
0.188245 -0.087621 0.094291
0.186192 -0.087762 0.091259
-0.467621 -0.081993 0.096090
-0.175241 -0.072097 0.088741
0.004745 -0.078880 0.093696
0.008283 -0.087657 0.086596
0.171825 -0.078166 0.093914
0.401597 -0.080069 0.085598
-0.470105 -0.082668 0.092180
0.390715 -0.082789 0.096342
-0.473089 -0.071799 0.093498
0.402133 -0.078762 0.088198
-0.475628 -0.068278 0.095161
-0.174632 -0.084660 0.085510
0.009079 -0.080632 0.089514
0.168675 -0.077015 0.092030
0.160012 -0.072339 0.089605
0.409586 -0.074391 0.088839
0.412123 -0.073684 0.090659
0.412020 -0.075723 0.084441
0.397451 -0.080529 0.096558
-0.177672 -0.066418 0.087642
0.151738 -0.067073 0.085033
0.403782 -0.080776 0.083430
0.426616 -0.073620 0.083674
0.425988 -0.068684 0.094645
0.421019 -0.075730 0.089587
0.427638 -0.072559 0.085331
0.421223 -0.079168 0.078514
-0.426891 -0.067944 0.087893
0.017909 -0.071956 0.086986
0.143450 -0.062047 0.078023
-0.431351 -0.076288 0.086958
-0.173109 -0.059684 0.093065
0.168088 -0.068773 0.102794
0.427443 -0.072411 0.084379
-0.431562 -0.046569 0.105424
-0.423196 -0.063840 0.084429
0.142009 -0.060389 0.077367
0.436530 -0.053296 0.079792
-0.478996 -0.060374 0.085354
0.019305 -0.045810 0.094804
-0.477779 -0.043326 0.094635
0.158031 -0.068379 0.091324
-0.188748 -0.053287 0.081244
0.148220 -0.062597 0.085748
-0.426961 -0.053574 0.098315
-0.477336 -0.038373 0.080592
-0.173522 -0.059693 0.092455
0.030977 -0.040197 0.091059
0.140288 -0.059056 0.077216
0.436092 -0.041491 0.084077
0.020548 -0.055139 0.092766
0.036667 -0.044393 0.088397
-0.477415 -0.036370 0.100383
-0.174965 -0.049061 0.093741
0.053292 -0.035774 0.085655
0.435908 -0.045215 0.084577
-0.177314 -0.031813 0.093868
0.436803 -0.039213 0.084642
-0.402852 -0.036922 0.078235
-0.281949 -0.027679 0.086415
-0.287516 -0.035827 0.085016
0.436153 -0.023277 0.092714
-0.285654 -0.011633 0.089431
-0.173957 -0.036824 0.095747
0.432041 -0.036246 0.099667
-0.475991 -0.025532 0.086674
-0.280321 -0.021010 0.086577
-0.285891 -0.027669 0.087243
-0.284403 -0.034790 0.085320
-0.288489 -0.026798 0.088292
-0.189326 -0.006976 0.088097
0.044044 -0.036644 0.087286
0.058348 -0.023660 0.085373
0.138369 -0.030410 0.096543
0.439835 -0.019207 0.084383
-0.279505 -0.013958 0.089153
0.436594 -0.024715 0.091651
-0.286833 -0.013989 0.089075
-0.267438 -0.007956 0.083740
0.061913 -0.014201 0.086243
0.440077 -0.016837 0.085092
-0.423107 -0.024618 0.102362
0.059052 -0.029211 0.085036
0.137472 -0.023004 0.095453
-0.413820 -0.010501 0.094328
-0.276349 -0.010754 0.086754
0.064549 -0.012119 0.085814
0.437497 -0.019369 0.091020
0.439293 -0.007793 0.089415
-0.286567 -0.019966 0.088911
-0.288091 -0.008153 0.089804
-0.197641 -0.021062 0.080194
0.061108 -0.016472 0.086275
0.051790 -0.005117 0.088530
0.135002 -0.011138 0.093872
-0.301717 -0.002148 0.089118
-0.304080 0.002603 0.088607
-0.264033 -0.009998 0.078849
-0.409433 -0.002930 0.091879
0.069298 -0.017415 0.084944
0.141889 -0.018949 0.101648
0.438704 -0.002119 0.087973
0.439886 -0.003302 0.087575
-0.422685 0.008849 0.105766
-0.301575 -0.010770 0.088197
-0.300332 -0.004778 0.090121
-0.292637 -0.003743 0.092036
-0.315339 -0.004054 0.080286
0.074920 0.000938 0.084096
0.124364 0.005305 0.084738
0.051411 0.007069 0.089197
0.082422 -0.006975 0.083586
-0.286721 0.007742 0.094284
-0.195429 -0.006012 0.084157
0.133205 0.000254 0.091072
-0.298942 0.012357 0.090739
0.125298 0.017785 0.083677
0.445259 -0.003903 0.078419
0.441678 0.004089 0.084589
-0.279488 -0.005126 0.089960
0.052815 -0.000898 0.088711
0.055815 0.015471 0.086071
0.063306 0.006836 0.085058
-0.298305 0.000601 0.091155
-0.186205 0.016024 0.091219
0.441836 0.021765 0.080924
-0.411384 0.002628 0.093872
0.128587 0.014385 0.086326
-0.475544 0.018320 0.098437
-0.309201 0.005214 0.085715
-0.315040 0.035164 0.081389
-0.181990 0.003713 0.093181
0.051523 0.008137 0.089084
-0.408806 0.018062 0.090876
-0.309997 0.021683 0.084907
0.046277 0.014029 0.089597
0.127271 0.014659 0.086061
0.436959 0.026783 0.089201
-0.475135 0.015421 0.089915
-0.395823 0.020395 0.082684
-0.390209 0.029200 0.078638
-0.317775 0.030215 0.079186
-0.312494 0.009772 0.083129
-0.195033 0.021917 0.086712
0.136918 0.027069 0.089290
0.437877 0.020456 0.088027
0.441260 0.025948 0.081354
-0.294590 0.032210 0.092338
-0.300172 0.018659 0.090490
-0.285706 0.031671 0.092962
0.436814 0.025097 0.089295
-0.475386 0.036278 0.086622
-0.402173 0.008665 0.086691
0.053142 0.025636 0.084793
0.034395 0.026369 0.091835
0.439182 0.026783 0.085187
0.438284 0.014312 0.087012
-0.475753 0.016556 0.097658
-0.308051 0.024392 0.085730
-0.292000 0.037436 0.092086
-0.291734 0.012111 0.093088
0.038772 0.049282 0.081837
0.424740 0.028859 0.104491
-0.283716 0.012865 0.094883
-0.275783 0.036002 0.091189
0.130917 0.032526 0.080968
0.449399 0.035107 0.067781
0.435824 0.036292 0.090337
-0.408246 0.031142 0.089276
0.038184 0.026954 0.089928
0.436570 0.012401 0.092754
-0.265755 0.024957 0.083856
-0.191907 0.045291 0.090779
-0.475919 0.048661 0.096089
-0.304967 0.038584 0.085863
0.439325 0.026600 0.084575
0.439886 0.025935 0.083773
-0.413671 0.041424 0.092192
-0.182692 0.045083 0.097288
0.026103 0.052088 0.089121
0.141316 0.033000 0.093637
0.426971 0.053076 0.088981
-0.208389 0.047355 0.082365
0.140130 0.040278 0.085651
0.432867 0.039242 0.090242
-0.299241 0.035725 0.088803
-0.274907 0.062301 0.081897
-0.284416 0.038547 0.092466
-0.279312 0.050329 0.087693
0.419652 0.038914 0.104664
0.425843 0.053812 0.089265
0.425058 0.055427 0.089459
-0.406867 0.062061 0.079307
-0.288396 0.058058 0.085207
0.024542 0.045213 0.092798
0.150203 0.068064 0.084181
0.426913 0.054635 0.087609
0.428601 0.067405 0.077874
0.424483 0.059169 0.087483
0.415576 0.063244 0.091513
0.154320 0.057665 0.099028
0.406471 0.076280 0.085997
-0.473257 0.090239 0.094314
-0.416096 0.071135 0.087371
-0.193349 0.081502 0.087826
0.153305 0.059177 0.094881
0.404056 0.065165 0.097523
-0.196033 0.081115 0.085605
-0.188956 0.073730 0.093405
0.157726 0.074763 0.088007
0.155007 0.060975 0.097616
-0.412788 0.077475 0.080073
-0.192402 0.080169 0.089159
0.411729 0.063023 0.094521
0.160612 0.076517 0.088843
0.403940 0.074443 0.090362
0.404921 0.070685 0.093673
-0.203981 0.075288 0.082551
-0.467567 0.083881 0.111060
-0.421067 0.082855 0.087960
0.172749 0.086225 0.092807
-0.191777 0.081493 0.089920
0.174500 0.078506 0.102923
0.381030 0.092528 0.087883
-0.476071 0.092727 0.085085
-0.188719 0.094202 0.085702
0.164341 0.086162 0.079098
0.172230 0.092143 0.081970
0.368578 0.099830 0.089153
0.177087 0.092871 0.085919
0.192415 0.097631 0.098441
-0.442035 0.098011 0.100051
-0.472262 0.114762 0.077447
-0.465174 0.112297 0.088979
0.197181 0.102728 0.094543
0.369490 0.089790 0.100204
0.384784 0.101768 0.077152
0.372768 0.105703 0.080879
-0.463906 0.103981 0.094199
-0.179532 0.108623 0.083988
-0.001526 0.111402 0.089181
0.177525 0.096172 0.082819
0.196353 0.108203 0.085030
0.201462 0.106629 0.091130
0.218445 0.112616 0.093474
0.213391 0.109517 0.091766
0.206101 0.106971 0.088964
-0.444059 0.104729 0.095148
0.222482 0.120456 0.090375
-0.450194 0.115347 0.083077
-0.006265 0.114475 0.093378
0.207166 0.110757 0.090367
-0.453946 0.109743 0.094320
-0.445849 0.115531 0.081781
-0.178294 0.123553 0.070427
-0.008112 0.125750 0.090749
0.349313 0.128404 0.087069
0.208087 0.109588 0.095428
-0.167910 0.133960 0.081353
-0.010844 0.130345 0.092112
0.222542 0.122950 0.091164
0.229394 0.128813 0.090686
-0.173529 0.120000 0.082034
0.242339 0.129933 0.091210
0.253061 0.135492 0.086064
0.245661 0.138043 0.081546
0.343589 0.132876 0.092059
-0.018253 0.137000 0.097442
0.274513 0.130349 0.093017
0.270536 0.137034 0.086588
-0.152914 0.155266 0.099884
0.283950 0.146971 0.082135
-0.158461 0.144666 0.094183
0.279316 0.141735 0.083771
0.327444 0.147384 0.096586
0.331832 0.151963 0.089472
-0.151315 0.170691 0.099249
0.327519 0.147302 0.096943
0.309462 0.156058 0.087653
0.323326 0.157518 0.087323
0.326986 0.148465 0.096202
0.337626 0.155847 0.077722
0.300122 0.154005 0.092833
0.297287 0.150570 0.101493
0.302879 0.157804 0.085160
0.329783 0.164161 0.079150
0.336104 0.148674 0.083165
0.320613 0.157606 0.090199
0.303854 0.163940 0.079440
0.316834 0.157387 0.089697
0.300643 0.148631 0.107725
0.293610 0.159655 0.079171
0.300953 0.157952 0.090803
-0.024850 0.177916 0.082520
-0.151614 0.159418 0.102484
-0.157848 0.176719 0.085011
-0.152264 0.175878 0.096837
-0.151232 0.171563 0.099431
-0.039549 0.180143 0.097695
-0.157493 0.186558 0.085434
-0.154868 0.184455 0.091896
-0.041248 0.192213 0.090144
-0.055318 0.203551 0.090916
-0.045407 0.201153 0.083615
-0.061383 0.204836 0.093836
-0.158184 0.199012 0.085211
-0.073256 0.218783 0.085478
-0.149352 0.223702 0.096715
-0.076258 0.220213 0.086153
-0.151506 0.213321 0.097075
-0.081671 0.220220 0.091125
-0.152799 0.222153 0.092952
-0.096949 0.235742 0.078886
-0.101117 0.238889 0.077204
-0.091036 0.229496 0.084414
-0.154371 0.239360 0.080816
-0.153265 0.239529 0.082923
-0.133672 0.236483 0.097725
-0.132004 -0.194202 0.090174
-0.138393 -0.187882 0.088505
-0.144384 -0.177291 0.091184
-0.135765 -0.195876 0.086057
-0.122096 -0.189139 0.090552
-0.137684 -0.186711 0.090565
-0.135227 -0.188003 0.092277
-0.145195 -0.172674 0.094366
-0.093033 -0.176090 0.094676
-0.082267 -0.181239 0.087161
-0.145157 -0.172902 0.091425
-0.140489 -0.168919 0.101859
-0.080337 -0.164867 0.096072
-0.143714 -0.175535 0.094374
-0.072758 -0.169776 0.089647
-0.071432 -0.169344 0.089876
-0.075826 -0.160246 0.096876
-0.146247 -0.161528 0.097323
-0.050151 -0.147595 0.092729
-0.147237 -0.156596 0.097505
-0.048840 -0.155104 0.086770
-0.042729 -0.138436 0.092748
-0.014761 -0.124381 0.078175
-0.153718 -0.129115 0.094375
-0.159992 -0.116158 0.086748
-0.011959 -0.108005 0.089413
-0.158198 -0.113323 0.092645
0.243554 -0.114542 0.088145
0.270570 -0.115722 0.088604
0.262976 -0.112120 0.095415
0.271599 -0.119091 0.082771
0.309736 -0.115932 0.090295
0.309347 -0.119206 0.086488
0.336202 -0.105612 0.099419
-0.013131 -0.106978 0.091229
0.218707 -0.114853 0.086634
0.225184 -0.120337 0.071125
0.223247 -0.115868 0.083153
0.211237 -0.113509 0.087595
0.253242 -0.113544 0.086276
0.254845 -0.112101 0.089699
0.271933 -0.103450 0.098648
0.333291 -0.112263 0.090697
0.219222 -0.115285 0.084894
0.204930 -0.107653 0.090100
0.244509 -0.109251 0.093078
0.241985 -0.116082 0.082987
0.275923 -0.101842 0.101374
0.294052 -0.113194 0.093062
0.308900 -0.117931 0.087996
0.310625 -0.114394 0.092056
0.310324 -0.113823 0.092849
0.307329 -0.118158 0.087698
0.229108 -0.110786 0.092151
0.240468 -0.116402 0.084255
0.216163 -0.111363 0.090125
0.308262 -0.101822 0.103858
-0.013550 -0.097714 0.097399
0.205941 -0.102942 0.096168
0.361645 -0.097857 0.093234
0.348986 -0.099848 0.099315
-0.002240 -0.094830 0.089839
0.359025 -0.096035 0.096929
0.375152 -0.097890 0.086763
0.374978 -0.097956 0.086945
0.365767 -0.097535 0.091113
-0.160172 -0.105362 0.092371
0.372257 -0.088970 0.099644
-0.457660 -0.084109 0.097293
-0.451687 -0.101856 0.082005
-0.467440 -0.084919 0.089387
-0.441224 -0.081850 0.089131
0.212408 -0.094096 0.105523
-0.466872 -0.089006 0.090387
-0.158572 -0.111600 0.092441
-0.013039 -0.095321 0.097297
0.206946 -0.097577 0.100644
0.194096 -0.090569 0.093382
0.377382 -0.087827 0.095161
-0.166728 -0.086976 0.091979
0.390202 -0.082824 0.107370
-0.468857 -0.075819 0.099261
-0.009295 -0.067908 0.104907
0.176200 -0.080987 0.093548
-0.472480 -0.079926 0.089603
-0.174620 -0.084628 0.085250
0.172631 -0.069952 0.106124
0.186676 -0.079606 0.104693
0.386742 -0.090453 0.085285
-0.431773 -0.081140 0.082899
0.020367 -0.072325 0.085932
0.176247 -0.082978 0.089469
0.401700 -0.079722 0.085495
0.396441 -0.080365 0.096882
-0.476171 -0.070861 0.090285
-0.436689 -0.069318 0.099191
0.409154 -0.073620 0.090754
0.416686 -0.078990 0.078689
0.402913 -0.077746 0.089756
0.427500 -0.067386 0.105375
-0.166036 -0.081592 0.095494
0.028959 -0.071217 0.079561
0.153487 -0.063183 0.091703
0.429416 -0.067404 0.091146
-0.176461 -0.079006 0.085944
0.163912 -0.071090 0.094734
0.434061 -0.062699 0.090199
-0.470879 -0.074943 0.097659
0.152438 -0.064197 0.089018
-0.167394 -0.075245 0.095411
0.023581 -0.052909 0.092096
0.157855 -0.066453 0.092760
0.149301 -0.063221 0.086288
-0.175843 -0.050461 0.092381
0.146717 -0.051089 0.097420
0.431177 -0.057161 0.101131
-0.465891 -0.052055 0.113873
0.142757 -0.050634 0.090053
-0.169471 -0.059125 0.096954
0.152939 -0.068743 0.084714
0.429676 -0.069083 0.089842
-0.177293 -0.056233 0.090194
0.028596 -0.039034 0.092367
-0.478820 -0.052746 0.084100
0.136662 -0.041366 0.092042
0.431529 -0.037870 0.100160
-0.419139 -0.048272 0.090291
0.138442 -0.031684 0.097566
-0.476885 -0.034861 0.085147
-0.423756 -0.049975 0.094104
-0.177735 -0.034233 0.092330
-0.169068 -0.030020 0.101140
0.026887 -0.047178 0.091559
0.137331 -0.045079 0.088749
-0.476830 -0.031055 0.088860
-0.173556 -0.038389 0.096066
0.035792 -0.045550 0.088528
0.041066 -0.032551 0.088724
0.134899 -0.034508 0.092362
0.028904 -0.033205 0.092979
-0.416463 -0.033157 0.092572
0.133185 -0.026082 0.091499
0.432965 -0.034274 0.097629
0.435421 -0.037997 0.087617
0.435778 -0.032703 0.088130
0.054787 -0.029246 0.085523
0.058839 -0.027763 0.085726
0.142704 -0.039101 0.099629
0.435393 -0.028854 0.091467
-0.409364 -0.024458 0.087413
-0.295066 -0.037293 0.083259
-0.283267 -0.026803 0.086782
-0.187926 -0.026941 0.085312
-0.285629 -0.032066 0.086212
-0.278911 -0.016392 0.087647
-0.266977 -0.009081 0.083049
0.040362 -0.027455 0.090061
0.141124 -0.040073 0.096835
-0.476371 -0.014255 0.095338
0.042908 0.000958 0.092168
0.130512 -0.006907 0.089569
0.436708 -0.018774 0.093669
-0.477285 -0.014295 0.111035
-0.411530 -0.007975 0.092640
-0.281620 -0.026396 0.086400
0.130155 -0.020756 0.089379
-0.289656 -0.005207 0.092484
-0.260814 -0.009684 0.075471
-0.289487 -0.013315 0.090603
0.032867 -0.001455 0.095613
0.130585 -0.012229 0.088343
-0.419023 -0.013169 0.098667
0.436514 -0.009476 0.098214
-0.272852 -0.008253 0.085171
-0.177350 0.008785 0.096596
0.056946 -0.009821 0.087159
-0.289441 -0.009129 0.093554
-0.299979 -0.006160 0.090347
-0.175083 -0.017477 0.096876
0.056996 0.004504 0.087315
-0.297433 -0.001559 0.092353
-0.268935 -0.007557 0.082611
0.053434 -0.019656 0.087323
0.438343 -0.006861 0.089996
-0.270890 -0.006308 0.084151
-0.186722 0.000852 0.090079
-0.413829 0.006083 0.095598
-0.414871 0.001994 0.096303
-0.293473 0.002523 0.092440
0.051379 0.005656 0.089182
-0.291775 0.005666 0.094502
-0.299767 0.006375 0.090220
-0.293374 -0.006055 0.093267
-0.166796 0.006663 0.105368
0.431945 0.004512 0.106201
-0.289346 0.006675 0.092846
0.046208 0.012005 0.089972
0.053583 0.017136 0.086666
0.046354 0.014063 0.089632
-0.397742 -0.005516 0.084013
-0.310275 0.021425 0.084010
-0.475171 0.019558 0.083694
-0.289710 0.021261 0.095437
0.440486 0.022033 0.082896
-0.289325 0.012250 0.094198
-0.275664 0.021953 0.092021
0.053545 0.019564 0.086215
0.139319 0.014319 0.096586
-0.299243 0.017076 0.091233
-0.282684 0.018329 0.094718
0.437814 0.013994 0.087752
-0.475185 0.011737 0.103761
-0.297574 0.015560 0.092345
-0.181624 0.030961 0.096385
0.126706 0.006736 0.086074
0.434385 0.024710 0.092354
-0.398950 0.024740 0.083014
-0.291361 0.030408 0.093083
-0.187573 0.042536 0.093277
0.045535 0.027722 0.086899
0.045480 0.021186 0.088635
0.023806 0.028419 0.097556
0.434724 0.028277 0.091827
-0.290855 0.030102 0.092771
0.440892 0.032277 0.081609
-0.409736 0.031041 0.090614
-0.418668 0.038720 0.098390
-0.289309 0.035268 0.093302
-0.179641 0.030188 0.097467
0.438979 0.026821 0.084772
0.434660 0.026288 0.091725
-0.309947 0.021607 0.084978
0.029998 0.040787 0.090899
-0.475710 0.035831 0.101445
-0.183172 0.031968 0.094536
0.139573 0.025697 0.094182
0.435407 0.028259 0.090506
0.147887 0.050715 0.093590
-0.281353 0.039898 0.089864
-0.291250 0.034302 0.093099
-0.277786 0.042298 0.087407
-0.267701 0.043143 0.084184
0.427874 0.032074 0.101846
0.420137 0.050606 0.096833
-0.181727 0.044449 0.097431
0.430473 0.038727 0.094541
-0.476037 0.047381 0.095937
-0.290393 0.049020 0.089413
-0.283318 0.056845 0.086450
-0.277996 0.040606 0.088582
0.430675 0.038781 0.093818
0.437232 0.047003 0.081736
0.025303 0.041149 0.092961
0.144007 0.039420 0.093546
0.424655 0.048424 0.093889
-0.281276 0.040526 0.090616
-0.195696 0.046499 0.088600
0.427428 0.051867 0.088944
0.425300 0.064938 0.083434
-0.476200 0.044368 0.093706
-0.184304 0.065772 0.097920
0.027961 0.053947 0.087263
0.140363 0.046578 0.081358
-0.418242 0.044677 0.096528
0.145373 0.044697 0.092959
0.427216 0.053091 0.088135
0.427603 0.052449 0.088424
0.025034 0.050958 0.090576
0.147065 0.055215 0.088025
0.429426 0.067182 0.077711
-0.477023 0.059815 0.098576
-0.420503 0.048212 0.099184
-0.189288 0.070240 0.093600
0.008321 0.065792 0.097843
0.420983 0.064188 0.087458
-0.191696 0.060889 0.092354
0.150298 0.060309 0.089190
0.417441 0.061104 0.091843
-0.198496 0.066641 0.086971
0.167094 0.081833 0.089845
-0.425944 0.070381 0.098707
0.012983 0.075136 0.091098
0.157848 0.064907 0.098509
-0.471776 0.087608 0.101332
0.160205 0.074457 0.090202
-0.425327 0.083866 0.092528
-0.192375 0.073228 0.090820
-0.192236 0.081361 0.089469
-0.462536 0.095294 0.103855
0.177179 0.086982 0.099582
0.392684 0.081263 0.091923
-0.184365 0.078450 0.097415
0.007448 0.080681 0.093617
0.176565 0.091075 0.091008
0.180049 0.089179 0.095915
0.167531 0.090151 0.078867
0.382134 0.080976 0.099164
0.390082 0.079405 0.095387
-0.476136 0.092437 0.084643
-0.429975 0.091830 0.093845
-0.425330 0.084027 0.092501
-0.433425 0.095011 0.095715
0.002028 0.102896 0.089363
0.186161 0.092219 0.098761
0.198616 0.098719 0.099203
-0.460134 0.109426 0.093532
-0.171162 0.097080 0.105152
0.193090 0.095510 0.099822
0.361025 0.106910 0.088731
0.375891 0.089544 0.093936
0.369491 0.093702 0.094058
0.379186 0.092419 0.088318
-0.466518 0.099501 0.097032
-0.464261 0.103349 0.094358
0.181247 0.093362 0.094377
0.194952 0.097403 0.099932
0.206477 0.104166 0.097677
0.205928 0.101705 0.099247
0.220908 0.103408 0.102714
0.361917 0.096743 0.101570
0.368488 0.096159 0.092349
-0.467914 0.109969 0.085930
-0.448898 0.108941 0.092734
0.366780 0.109786 0.081544
0.354714 0.104687 0.099665
-0.455528 0.112239 0.092538
-0.446425 0.109234 0.092746
0.000559 0.105617 0.089674
-0.006037 0.121067 0.090351
0.355351 0.112353 0.089823
-0.456056 0.114365 0.089969
-0.453494 0.102032 0.104500
0.211047 0.109224 0.089597
0.349618 0.112597 0.099303
0.210949 0.108935 0.089523
-0.167297 0.122403 0.092735
0.224674 0.112084 0.101459
-0.007637 0.125699 0.090321
0.342610 0.137709 0.088836
-0.174381 0.117608 0.081938
0.227807 0.122309 0.097369
0.229560 0.126537 0.092176
0.244443 0.134819 0.087220
0.270402 0.124621 0.099554
0.262627 0.122222 0.102081
0.259962 0.128081 0.095572
0.250605 0.126643 0.096183
0.233647 0.131672 0.089976
0.254222 0.134400 0.088231
0.277048 0.130506 0.094900
0.342782 0.138159 0.085085
-0.154007 0.132308 0.108858
-0.012154 0.137652 0.091595
0.324931 0.156342 0.086999
0.283921 0.143459 0.087364
0.282918 0.139365 0.087978
0.330901 0.141179 0.101294
-0.154253 0.132447 0.108652
-0.024621 0.149030 0.099847
-0.010518 0.139909 0.087739
0.298177 0.154988 0.095451
0.297867 0.160634 0.080201
0.300444 0.159847 0.078927
0.304944 0.158447 0.085673
0.326434 0.156021 0.086427
0.314689 0.155517 0.097903
0.327648 0.148694 0.095268
0.329038 0.147092 0.093845
-0.018641 0.162432 0.085426
0.302756 0.152461 0.099152
0.316800 0.153437 0.097121
0.327458 0.148837 0.097224
0.325708 0.151230 0.094597
-0.152406 0.161767 0.099183
0.306286 0.152028 0.106261
-0.017159 0.145328 0.094043
-0.152026 0.169986 0.098420
-0.029684 0.187631 0.081356
-0.043724 0.179044 0.101603
-0.050258 0.185903 0.101823
-0.158735 0.206838 0.082860
-0.156437 0.210722 0.086707
-0.055487 0.201800 0.092448
-0.065635 0.201385 0.099596
-0.156303 0.211502 0.086831
-0.078860 0.215049 0.095165
-0.068398 0.213652 0.089361
-0.081451 0.219158 0.092440
-0.082336 0.220866 0.090911
-0.147545 0.233873 0.093681
-0.105714 0.233427 0.090391
-0.147288 0.241758 0.086815
-0.136109 0.240060 0.092174
-0.105713 0.225330 0.101572
-0.135696 0.243122 0.089433
-0.144227 0.235501 0.095342
-0.149710 0.240809 0.084732
-0.151051 0.247231 0.076050
-0.134701 0.227821 0.106577
-0.137548 -0.189358 0.088717
-0.116972 -0.170270 0.103889
-0.115944 -0.172950 0.101553
-0.093162 -0.177989 0.093774
-0.089451 -0.173470 0.094689
-0.093596 -0.172944 0.095785
-0.082424 -0.178695 0.088575
-0.137728 -0.181716 0.093285
-0.092835 -0.160515 0.102975
-0.072246 -0.156596 0.098150
-0.070520 -0.158316 0.096992
-0.066289 -0.141300 0.103640
-0.046629 -0.143859 0.091871
-0.153660 -0.146231 0.086967
-0.043434 -0.142366 0.090853
-0.055523 -0.146088 0.096039
-0.034136 -0.139330 0.083816
-0.041649 -0.135672 0.093378
-0.037949 -0.124977 0.097906
-0.024008 -0.117360 0.092428
-0.153718 -0.129302 0.095214
0.266472 -0.107148 0.099328
0.256413 -0.112068 0.092066
-0.028036 -0.111965 0.098637
0.252547 -0.104542 0.099795
0.255753 -0.101115 0.102945
0.278615 -0.117630 0.084329
0.327349 -0.111572 0.092193
0.323765 -0.104455 0.100099
0.308793 -0.119229 0.086157
0.315314 -0.114108 0.091132
0.323180 -0.115643 0.088957
0.203960 -0.106974 0.091256
0.211060 -0.087859 0.110049
0.219110 -0.116027 0.086367
0.225296 -0.102505 0.105515
0.229157 -0.111106 0.092231
0.230244 -0.110067 0.095038
0.255989 -0.114621 0.089857
0.285886 -0.104308 0.103346
0.332930 -0.108247 0.096278
0.334512 -0.113528 0.088572
0.324838 -0.122500 0.078099
0.207612 -0.111829 0.087789
0.243190 -0.110167 0.092859
0.247269 -0.111863 0.089048
0.253906 -0.102610 0.098291
0.240068 -0.102669 0.101693
0.234913 -0.116093 0.083053
0.296757 -0.118623 0.085575
0.308434 -0.109509 0.095986
0.307664 -0.108882 0.096517
0.329923 -0.110469 0.092856
0.339933 -0.103419 0.100842
0.347975 -0.103980 0.096776
0.249859 -0.110440 0.091072
0.306370 -0.119426 0.086944
0.306742 -0.117322 0.086952
0.351801 -0.104305 0.093364
-0.162930 -0.101025 0.091101
-0.015609 -0.098408 0.098156
0.199058 -0.089829 0.101231
0.344664 -0.100440 0.102307
-0.161364 -0.089502 0.097416
-0.016876 -0.102570 0.096973
0.201524 -0.092231 0.100428
0.363729 -0.097401 0.092812
0.361907 -0.107581 0.083766
0.204564 -0.091893 0.101728
-0.448759 -0.076092 0.098663
0.196413 -0.093796 0.090556
0.365685 -0.090539 0.103465
0.376503 -0.088150 0.097883
-0.462308 -0.081527 0.099525
-0.461885 -0.093622 0.091631
-0.460617 -0.082011 0.101466
-0.430167 -0.071752 0.088983
0.197506 -0.087461 0.099953
-0.469392 -0.083476 0.092519
0.190564 -0.090576 0.089737
0.182860 -0.084730 0.092348
0.387537 -0.083430 0.098786
-0.440145 -0.071737 0.094076
0.197543 -0.079290 0.112662
0.180389 -0.084148 0.091211
0.387375 -0.084832 0.095151
-0.470678 -0.073262 0.099276
-0.441434 -0.081578 0.090458
-0.165611 -0.085103 0.094234
0.166176 -0.075135 0.092867
0.170400 -0.082521 0.084991
0.383012 -0.084469 0.099718
0.404980 -0.079668 0.102558
0.401749 -0.079329 0.085320
0.396825 -0.081457 0.096695
-0.426457 -0.066519 0.087806
0.151720 -0.063733 0.088460
0.170234 -0.075283 0.095446
0.386323 -0.086629 0.094473
0.402128 -0.080103 0.084609
0.427372 -0.072476 0.084447
0.427068 -0.073754 0.095942
-0.008647 -0.069034 0.104179
0.165850 -0.072080 0.096142
0.161370 -0.072240 0.091068
0.427188 -0.070630 0.097303
0.424891 -0.074655 0.082002
0.429585 -0.067825 0.099323
-0.423115 -0.063931 0.084405
-0.172292 -0.073940 0.090345
-0.157152 -0.077589 0.105537
0.158507 -0.066479 0.093757
0.428606 -0.070684 0.096944
-0.474346 -0.069036 0.091241
0.016104 -0.061779 0.092096
-0.465117 -0.066010 0.107871
-0.439333 -0.082758 0.087354
0.164107 -0.065814 0.102272
0.433234 -0.055058 0.093365
0.009466 -0.052133 0.098590
0.015632 -0.059649 0.093300
0.137459 -0.048784 0.086092
-0.434729 -0.053634 0.105291
0.027741 -0.062131 0.086349
0.146700 -0.055853 0.091083
0.154119 -0.052997 0.102137
-0.169774 -0.048176 0.099171
0.144709 -0.053284 0.090399
0.026679 -0.047667 0.091344
0.025310 -0.046125 0.092223
0.431705 -0.053378 0.097577
0.434675 -0.054534 0.087921
0.021130 -0.047731 0.093931
0.139798 -0.049863 0.088011
0.155131 -0.048972 0.104052
-0.172945 -0.044062 0.095726
0.017587 -0.044096 0.096136
0.029254 -0.035688 0.092088
0.136964 -0.047526 0.086529
-0.476075 -0.020965 0.080998
0.144638 -0.038315 0.101078
0.435483 -0.030202 0.090579
-0.425800 -0.040266 0.102269
-0.176961 -0.015290 0.095140
0.034685 -0.046437 0.088898
-0.425644 -0.019250 0.106335
0.145304 -0.031844 0.105119
0.437099 -0.016604 0.097085
-0.175399 -0.017071 0.096805
0.041694 -0.031858 0.088914
0.434484 -0.026780 0.099410
0.436264 -0.024514 0.091453
-0.476820 -0.027369 0.101363
-0.419545 -0.021453 0.098402
-0.294956 -0.011964 0.091622
0.037740 -0.019963 0.092215
0.137368 -0.022591 0.095454
0.436591 -0.020328 0.093967
-0.274187 -0.013168 0.085979
-0.279343 -0.002610 0.091894
-0.179095 0.002319 0.095488
-0.280791 -0.009265 0.088136
0.051577 0.007838 0.089204
0.129012 -0.023869 0.087593
-0.289790 -0.013912 0.091841
-0.281816 -0.024037 0.086862
-0.170177 -0.023842 0.100798
0.134039 -0.020238 0.092380
0.435661 -0.011302 0.110008
-0.270701 -0.006148 0.084774
-0.275093 -0.006753 0.086459
0.032603 -0.018001 0.094249
0.437874 0.012084 0.087446
-0.476813 -0.020149 0.089361
-0.277867 -0.005716 0.089446
-0.273442 -0.006562 0.085829
0.436756 -0.005637 0.101232
-0.289045 -0.010515 0.092374
-0.270739 -0.006863 0.084439
-0.170179 -0.022471 0.100483
0.040729 -0.003687 0.092837
0.438319 -0.006911 0.090041
-0.476536 -0.003260 0.108311
0.136674 -0.001127 0.095458
-0.288676 -0.000607 0.091670
-0.278840 0.007191 0.093558
0.438762 -0.003690 0.087947
-0.277839 -0.006053 0.090332
0.140380 -0.001263 0.102089
-0.417047 0.006017 0.099291
0.051106 0.005662 0.089342
-0.287225 0.010962 0.093502
-0.287134 0.027679 0.093801
-0.278370 0.007127 0.090195
0.134478 0.003093 0.093350
0.438957 -0.000848 0.088598
0.437687 0.012960 0.088220
-0.271381 0.021000 0.091973
0.031011 0.004303 0.096504
0.037850 0.003068 0.093654
0.054934 0.019331 0.085694
-0.416490 0.005597 0.098215
-0.285502 0.028009 0.092513
-0.182685 0.031724 0.095378
0.434331 0.023979 0.093179
-0.280006 0.021203 0.092929
-0.185395 0.015896 0.091801
0.129438 0.013454 0.087221
-0.475854 0.026942 0.097317
0.042009 0.015394 0.091171
0.129726 0.015332 0.087574
0.431363 0.022037 0.100738
