0.323118 0.030743 -0.190810
0.313226 0.025616 -0.188904
0.319224 0.020136 -0.187557
0.376953 0.026204 -0.176816
0.384968 0.028997 -0.177080
0.321058 0.027607 -0.190808
0.385851 0.035670 -0.195669
0.377221 0.042050 -0.185114
0.367262 0.030964 -0.178645
0.393040 0.038636 -0.181187
0.383214 0.024282 -0.193053
0.375643 0.025248 -0.188341
0.372913 0.050161 -0.191875
0.376690 0.036236 -0.199529
0.387283 0.033156 -0.179153
0.399073 0.031606 -0.178540
0.308442 -0.006077 -0.177943
0.306649 -0.003210 -0.190837
0.301323 -0.007074 -0.175861
0.295945 -0.005639 -0.185038
0.301237 -0.020103 -0.177513
0.305004 -0.008103 -0.193226
0.310571 0.001158 -0.182144
0.325414 0.002208 -0.186100
0.308802 -0.012971 -0.189614
0.382036 -0.015347 -0.176208
0.379481 -0.027742 -0.185630
0.403197 -0.016421 -0.168786
0.385992 -0.003007 -0.188805
0.295228 0.001484 -0.186001
0.309920 -0.001727 -0.195951
0.312063 -0.013720 -0.196308
0.335556 0.006026 -0.181256
0.319532 -0.001632 -0.195289
0.387505 -0.005374 -0.187969
0.387519 0.001994 -0.182305
0.388872 0.000091 -0.184230
0.391438 -0.007214 -0.189468
0.402383 -0.000516 -0.177226
0.283887 -0.007193 -0.181534
0.309193 -0.006067 -0.184677
0.293420 -0.018925 -0.185174
0.313025 -0.026818 -0.180962
0.328443 0.000778 -0.194055
0.328451 -0.007906 -0.189940
0.393690 -0.012679 -0.181647
0.389351 -0.001953 -0.184743
0.397514 0.000813 -0.191055
0.385737 -0.005651 -0.193572
0.297010 -0.006256 -0.180063
0.300969 -0.007682 -0.191350
0.303247 -0.003023 -0.181267
0.316285 0.004080 -0.190672
0.323092 -0.000474 -0.181483
0.336985 -0.027319 -0.180545
0.383161 -0.010718 -0.188727
0.365980 -0.013155 -0.186527
0.276370 0.004554 -0.176729
0.330520 -0.008066 -0.176631
0.335098 -0.008342 -0.188875
0.347999 -0.002164 -0.192675
0.359065 0.004047 -0.189653
0.375473 0.015542 -0.184253
0.365793 0.007692 -0.182942
0.398735 -0.000204 -0.187833
0.402627 0.007963 -0.174888
0.414388 -0.000537 -0.187926
0.289268 -0.000311 -0.190084
0.340800 0.017894 -0.188911
0.336021 0.002066 -0.199059
0.357654 -0.003166 -0.185263
0.402490 0.021990 -0.176181
0.409915 0.013853 -0.175874
0.289748 -0.007584 -0.192714
0.293921 0.015257 -0.176517
0.339321 0.019973 -0.191678
0.359630 -0.002158 -0.199518
0.405405 0.007089 -0.188067
0.292859 0.014042 -0.179502
0.294867 0.006661 -0.199005
0.316332 0.003014 -0.177070
0.345085 -0.004010 -0.181990
0.373146 0.008585 -0.187737
0.366614 0.010669 -0.194277
0.278152 0.019893 -0.191549
0.396534 0.019473 -0.178559
0.295919 0.012527 -0.189552
0.319073 0.017761 -0.181822
0.343785 0.029887 -0.183633
0.352401 0.020658 -0.185736
0.358788 0.020317 -0.188326
0.367312 0.014444 -0.182873
0.395675 0.019387 -0.189218
0.287834 0.022906 -0.184132
0.322839 0.006271 -0.197733
0.329302 0.011871 -0.187533
0.295493 0.022866 -0.180107
0.323404 0.033803 -0.178825
0.344434 0.028472 -0.185802
0.365042 0.022320 -0.186472
0.381470 0.018755 -0.202253
0.396980 0.011627 -0.191865
0.281337 0.027663 -0.186938
0.291287 0.013331 -0.179969
0.333736 0.005142 -0.173979
0.385997 0.034212 -0.182551
0.383758 0.020879 -0.180127
0.296728 0.024496 -0.194453
0.312357 0.014084 -0.184233
0.345611 0.032414 -0.182237
0.362647 0.031986 -0.193150
0.362419 0.024558 -0.195413
0.363924 0.017054 -0.193642
0.289491 0.018808 -0.195456
0.333814 0.030200 -0.184736
0.336163 0.017669 -0.190568
0.375630 0.019136 -0.183524
0.302697 0.029985 -0.187162
0.342107 0.033673 -0.185232
0.373130 0.017363 -0.181893
0.376117 0.033640 -0.185917
0.290894 0.034184 -0.184129
0.297409 0.030730 -0.189496
0.308538 0.032110 -0.195248
0.340118 0.022634 -0.184770
0.380932 0.034640 -0.180533
0.300918 0.033996 -0.172710
0.290521 0.051631 -0.177064
0.293106 0.034027 -0.172257
0.316539 0.030993 -0.187565
0.340615 0.036978 -0.183197
0.382491 0.037480 -0.176385
0.291265 0.035704 -0.191764
0.296437 0.049073 -0.187251
0.316314 0.026215 -0.192255
0.306374 0.033797 -0.185427
0.336324 0.035014 -0.173386
0.354732 0.052045 -0.193468
0.369793 0.034524 -0.190757
0.374798 0.030487 -0.183830
0.320496 0.039861 -0.183130
0.317570 0.033599 -0.190092
0.366662 0.056523 -0.181768
0.382937 0.039185 -0.177123
0.384791 0.028761 -0.196953
0.373741 0.041810 -0.180950
0.311650 0.039346 -0.200734
0.318554 0.052983 -0.189565
0.304280 0.042395 -0.172834
0.312561 0.041677 -0.178028
0.315651 0.059185 -0.187954
0.327718 0.052986 -0.165224
0.308764 0.056753 -0.190014
0.333121 0.044902 -0.185725
0.332005 0.056153 -0.188171
0.283202 -0.013403 -0.190063
0.313950 -0.023673 -0.178556
0.296417 -0.027228 -0.197314
0.302009 -0.018341 -0.201543
0.319114 -0.020495 -0.180143
0.309567 -0.012704 -0.184045
0.311965 -0.012156 -0.201616
0.319647 -0.012482 -0.173467
0.313635 -0.018123 -0.196372
0.314553 -0.019322 -0.177231
0.294916 -0.017881 -0.188678
0.299227 0.000508 -0.177312
0.395243 -0.005701 -0.183901
0.393495 -0.021823 -0.201176
0.393381 -0.028346 -0.164661
0.406553 -0.016824 -0.183512
0.294551 -0.010014 -0.177125
0.297491 -0.010607 -0.183669
0.320117 -0.012363 -0.184625
0.371189 0.005889 -0.186350
0.384107 -0.016195 -0.188433
0.370037 -0.013641 -0.181990
0.408734 -0.025393 -0.195808
0.383069 -0.012200 -0.178325
0.326282 0.002806 -0.176941
0.329769 -0.012220 -0.172503
0.369422 -0.015197 -0.186197
0.371372 -0.006308 -0.183085
0.355394 -0.013088 -0.180715
0.373292 -0.012394 -0.196150
0.374951 -0.016976 -0.187997
0.375921 -0.017684 -0.196753
0.401579 -0.007903 -0.176294
0.403819 -0.003755 -0.170308
0.413493 -0.010718 -0.181935
0.399200 -0.011741 -0.175446
0.403137 -0.018232 -0.180714
0.402069 0.001831 -0.185184
0.282121 -0.004768 -0.180306
0.295704 -0.006140 -0.183152
0.300889 -0.012198 -0.168436
0.360647 -0.019799 -0.168642
0.374586 -0.007686 -0.181546
0.402635 0.000627 -0.189308
0.399034 -0.006554 -0.183581
0.401334 -0.002969 -0.188340
0.275004 -0.010413 -0.175231
0.351095 -0.000447 -0.170541
0.343551 -0.004115 -0.187685
0.348570 -0.007612 -0.184210
0.365118 -0.012025 -0.176338
0.411722 -0.006708 -0.174102
0.291367 -0.003862 -0.174994
0.352788 -0.000610 -0.184874
0.267889 -0.001336 -0.184855
0.349636 0.012803 -0.177508
0.401983 0.015113 -0.188939
0.261809 0.008158 -0.180198
0.280955 0.003407 -0.178650
0.338612 0.010679 -0.188419
0.404702 0.008632 -0.172272
0.351241 0.000945 -0.192867
0.346277 -0.000162 -0.185431
0.277742 0.012635 -0.182724
0.272982 0.006508 -0.178573
0.273597 0.017440 -0.171129
0.283159 0.014955 -0.190078
0.350711 0.010256 -0.188351
0.358568 0.005765 -0.194903
0.352087 -0.003523 -0.184879
0.352984 0.005061 -0.191516
0.345575 0.006856 -0.197250
0.401976 0.002804 -0.178294
0.341920 -0.000643 -0.188454
0.348576 0.023764 -0.177817
0.406666 0.016960 -0.181681
0.270522 0.013728 -0.174600
0.340725 0.014408 -0.175334
0.362424 0.024759 -0.188395
0.271048 0.027798 -0.189076
0.284290 0.011788 -0.180953
0.336410 0.003842 -0.193624
0.351161 0.008662 -0.196700
0.285538 0.007002 -0.168313
0.271393 0.028715 -0.192647
0.344456 0.007256 -0.190132
0.353783 0.018578 -0.184116
0.399458 0.021185 -0.173750
0.274742 0.021663 -0.183617
0.342222 0.018504 -0.192334
0.358851 0.033506 -0.194210
0.357804 0.022195 -0.182967
0.359851 0.013699 -0.178008
0.276629 0.037020 -0.197226
0.330731 0.020989 -0.180648
0.367129 0.026895 -0.185675
0.407753 0.037208 -0.187834
0.286849 0.024059 -0.181844
0.278707 0.038913 -0.173975
0.360976 0.030523 -0.167551
0.347874 0.027651 -0.180543
0.348218 0.030660 -0.173114
0.358265 0.014906 -0.187245
0.369190 0.023211 -0.180609
0.401869 0.026895 -0.180459
0.342366 0.033866 -0.186842
0.358697 0.025319 -0.187315
0.347539 0.024090 -0.178235
0.393625 0.035564 -0.173693
0.291010 0.032848 -0.193653
0.344895 0.027744 -0.177796
0.385194 0.020313 -0.187439
0.369440 0.021570 -0.181697
0.295110 0.042025 -0.179948
0.340756 0.038620 -0.181847
0.350417 0.034244 -0.185494
0.396008 0.036411 -0.188200
0.396061 0.023416 -0.194337
0.291398 0.039455 -0.180733
0.352941 0.035674 -0.191355
0.362909 0.032012 -0.180425
0.341854 0.019115 -0.187906
0.347125 0.049959 -0.186875
0.379045 0.053099 -0.188778
0.288107 0.045199 -0.182319
0.336469 0.042762 -0.173367
0.335407 0.048605 -0.171183
0.370968 0.039534 -0.187952
0.279186 0.052719 -0.185067
0.371212 0.044599 -0.191101
0.393621 0.036437 -0.190887
0.378552 0.055823 -0.188896
0.299532 0.038057 -0.191319
0.340234 0.059258 -0.179999
0.340088 0.050997 -0.181675
0.294637 0.052024 -0.177821
0.303184 0.042255 -0.180839
0.284161 0.047286 -0.194314
0.309597 0.053625 -0.187305
0.322460 0.049036 -0.185054
0.322793 0.049214 -0.188408
0.303918 0.053677 -0.179592
0.306018 0.057240 -0.180090
0.319062 0.055943 -0.181324
0.324973 0.049102 -0.186411
0.334372 0.050454 -0.186467
0.318648 0.059298 -0.180738
0.299911 0.049299 -0.178754
0.310302 0.043518 -0.195944
0.327071 0.059972 -0.177005
0.312781 0.061614 -0.177799
0.307036 0.072247 -0.179958
0.332867 0.068962 -0.200780
0.319749 0.060829 -0.185148
0.336697 0.042569 -0.173544
0.320723 0.050072 -0.180538
0.320200 0.070815 -0.174854
0.292859 -0.045877 -0.187606
0.304118 -0.042421 -0.171191
0.299770 -0.025258 -0.191045
0.372046 -0.022413 -0.178242
0.365664 -0.026564 -0.183774
0.365306 -0.018844 -0.193993
0.289652 -0.019567 -0.191175
0.308062 -0.032274 -0.180932
0.314045 -0.023821 -0.173566
0.321951 -0.016510 -0.176516
0.374513 -0.022859 -0.168383
0.363284 -0.027505 -0.191759
0.287252 -0.020542 -0.176647
0.292573 -0.021581 -0.184237
0.324744 -0.028973 -0.178814
0.330012 -0.014303 -0.186751
0.343928 -0.017314 -0.185384
0.381178 -0.011179 -0.192759
0.368164 -0.004939 -0.184899
0.373871 -0.026808 -0.190029
0.386508 -0.011076 -0.184450
0.385470 -0.018932 -0.175379
0.389233 -0.028801 -0.185315
0.267241 -0.035076 -0.190533
0.336313 -0.030134 -0.170354
0.381766 -0.032086 -0.178115
0.382413 -0.004008 -0.172898
0.383735 -0.009384 -0.178404
0.396431 -0.023217 -0.180569
0.270857 -0.012240 -0.163581
0.343677 -0.022692 -0.177909
0.339581 -0.015363 -0.179859
0.341051 -0.002667 -0.174673
0.363726 -0.009963 -0.172519
0.365623 -0.000813 -0.182777
0.412712 -0.028908 -0.178268
0.399286 -0.013582 -0.188918
0.354058 -0.007505 -0.177082
0.406684 -0.017934 -0.195329
0.409508 -0.019908 -0.187267
0.294932 -0.002250 -0.176442
0.277770 -0.004255 -0.174593
0.384981 -0.023816 -0.180395
0.353107 -0.016746 -0.177479
0.397581 -0.006238 -0.178167
0.344240 -0.018838 -0.188836
0.347801 -0.019381 -0.186877
0.353631 -0.018038 -0.179889
0.407090 -0.004825 -0.185936
0.262122 -0.010679 -0.187856
0.271549 -0.014383 -0.183145
0.350306 0.006623 -0.180226
0.348244 -0.006969 -0.182092
0.266877 0.007461 -0.176896
0.354298 -0.022635 -0.175413
0.420449 0.005527 -0.175344
0.274173 0.003743 -0.179281
0.254443 0.008556 -0.190723
0.406787 -0.002737 -0.170691
0.154358 0.021501 -0.184146
0.162185 0.007660 -0.189297
0.172582 0.011535 -0.181768
0.169961 0.005811 -0.182523
0.175059 -0.000197 -0.188369
0.268711 0.001905 -0.175221
0.398005 0.011717 -0.177067
0.168183 0.019517 -0.174568
0.188270 0.001399 -0.167261
0.163026 0.008028 -0.179618
0.159916 0.009705 -0.175197
0.191799 0.022095 -0.182643
0.406475 0.006851 -0.180562
0.179516 0.020601 -0.168705
0.157262 0.005127 -0.185209
0.255307 0.022332 -0.172062
0.400828 0.025860 -0.163312
0.154677 0.025897 -0.194682
0.177766 0.017964 -0.179035
0.172836 0.010536 -0.172050
0.270995 0.033348 -0.189159
0.412343 0.028003 -0.180590
0.283458 0.020930 -0.179201
0.273939 0.011462 -0.194025
0.386512 0.025731 -0.185968
0.405716 0.026076 -0.173377
0.278862 0.023764 -0.185911
0.248549 0.020017 -0.165639
0.392764 0.028948 -0.175745
0.400798 0.035957 -0.177949
0.271987 0.026992 -0.185694
0.364782 0.033407 -0.184736
0.403644 0.033791 -0.188128
0.270309 0.045467 -0.184689
0.400559 0.026806 -0.186118
0.407604 0.039646 -0.189810
0.270318 0.028965 -0.185258
0.354880 0.043797 -0.187409
0.373483 0.055442 -0.183370
0.364221 0.039454 -0.193607
0.389021 0.035708 -0.197491
0.301794 0.042973 -0.183066
0.350007 0.042478 -0.178340
0.379781 0.020419 -0.177766
0.394483 0.062823 -0.190997
0.395637 0.037045 -0.196029
0.393849 0.044349 -0.178407
0.418045 0.041264 -0.175428
0.372628 0.041145 -0.163374
0.365895 0.042680 -0.194032
0.384997 0.025564 -0.196336
0.374669 0.042303 -0.167906
0.353104 0.047719 -0.184482
0.372505 0.034405 -0.184327
0.379448 0.031106 -0.182447
0.382932 0.045015 -0.187532
0.387295 0.035027 -0.188123
0.398278 0.044323 -0.181065
0.406260 0.045689 -0.174228
0.277691 0.048457 -0.173999
0.269074 0.041193 -0.191776
0.362583 0.042980 -0.188528
0.362877 0.037851 -0.181805
0.373486 0.048601 -0.188735
0.393453 0.035264 -0.185003
0.386440 0.055804 -0.176165
0.374715 0.041848 -0.187301
0.392788 0.040700 -0.191628
0.281885 0.050866 -0.175316
0.360697 0.046547 -0.198638
0.363895 0.042782 -0.179390
0.366712 0.055741 -0.183985
0.375494 0.051741 -0.192774
0.379983 0.049235 -0.181433
0.390739 0.052024 -0.159190
0.281788 0.063088 -0.191178
0.363867 0.053433 -0.173796
0.366905 0.061024 -0.168741
0.360809 0.055375 -0.162395
0.379052 0.045879 -0.177500
0.397978 0.038525 -0.192537
0.394738 0.074545 -0.186368
0.391132 0.048460 -0.192148
0.277356 0.048850 -0.185417
0.339739 0.051886 -0.189788
0.387362 0.060453 -0.186328
0.388259 0.054808 -0.177319
0.393007 0.051654 -0.186128
0.292646 0.055979 -0.174959
0.346214 0.058494 -0.174178
0.394645 0.054034 -0.174025
0.382227 0.047544 -0.185353
0.384397 0.048141 -0.178553
0.281933 0.058995 -0.176369
0.346506 0.064605 -0.185120
0.343325 0.052430 -0.168509
0.353293 0.064784 -0.195374
0.403329 0.056383 -0.183732
0.376010 0.050467 -0.181924
0.294337 0.063736 -0.197335
0.347065 0.079896 -0.187760
0.373057 0.055274 -0.192797
0.391672 0.061159 -0.183699
0.378780 0.046852 -0.174768
0.381585 0.049618 -0.186627
0.385034 0.060785 -0.181287
0.285056 0.065391 -0.177867
0.339147 0.068844 -0.183940
0.353750 0.052204 -0.176073
0.378246 0.064595 -0.181744
0.386986 0.067543 -0.184264
0.391788 0.062409 -0.187642
0.291646 0.055460 -0.172415
0.283643 0.063324 -0.173813
0.308247 0.076206 -0.184572
0.320225 0.070886 -0.179891
0.338340 0.075432 -0.165548
0.389293 0.055342 -0.178198
0.380021 0.072100 -0.180643
0.301063 0.059521 -0.181247
0.306971 0.073428 -0.186101
0.321029 0.075241 -0.173776
0.377256 0.085415 -0.187408
0.314208 0.078276 -0.176009
0.303447 0.063059 -0.177917
0.360964 -0.039046 -0.184003
0.354243 -0.036669 -0.180783
0.358684 -0.029762 -0.184597
0.389198 -0.033628 -0.171034
0.363136 -0.038288 -0.176199
0.368054 -0.031505 -0.180309
0.372891 -0.025399 -0.172357
0.371330 -0.036987 -0.172958
0.369310 -0.034592 -0.180726
0.324762 -0.034460 -0.181704
0.315017 -0.027130 -0.166804
0.365813 -0.036315 -0.176795
0.382619 -0.023904 -0.168201
0.373185 -0.037518 -0.181598
0.289026 -0.031954 -0.183355
0.309280 -0.047459 -0.183507
0.318626 -0.034346 -0.168848
0.342457 -0.024352 -0.174066
0.339964 -0.032187 -0.172068
0.372478 -0.027454 -0.170943
0.357696 -0.033716 -0.181767
0.367938 -0.023663 -0.169372
0.367007 -0.021243 -0.173308
0.382086 -0.029852 -0.198640
0.321978 -0.032103 -0.183315
0.333338 -0.048371 -0.170270
0.355350 -0.016205 -0.177111
0.364134 -0.024572 -0.181153
0.375269 -0.028518 -0.170908
0.366622 -0.035839 -0.165977
0.257590 -0.011108 -0.171116
0.280046 -0.031627 -0.169871
0.270029 -0.022021 -0.185383
0.283695 -0.019136 -0.193617
0.332008 -0.029178 -0.182595
0.334962 -0.019743 -0.180168
0.356980 -0.031927 -0.182446
0.351902 -0.028190 -0.175791
0.396722 -0.016942 -0.187045
0.386713 -0.025029 -0.183150
0.374525 -0.030067 -0.184061
0.395332 -0.030361 -0.165188
0.353242 -0.012583 -0.176090
0.383321 -0.013739 -0.174579
0.357926 -0.017839 -0.176719
0.263111 -0.029215 -0.161692
0.339826 -0.011795 -0.178418
0.359714 -0.034541 -0.161358
0.413253 -0.022867 -0.174862
0.402709 -0.015488 -0.182295
0.403535 -0.012413 -0.179435
0.240269 -0.019311 -0.183355
0.269389 -0.003182 -0.182003
0.413792 -0.008884 -0.180337
0.269096 -0.007867 -0.178979
0.174124 -0.010039 -0.174667
0.153940 -0.000974 -0.179458
0.162711 -0.006601 -0.176126
0.260806 -0.002045 -0.183869
0.410487 0.003762 -0.164382
0.152489 0.001926 -0.182697
0.176993 0.000707 -0.195115
0.166888 -0.003015 -0.167370
0.170671 0.002048 -0.189888
0.173138 -0.002064 -0.181382
0.182702 -0.011711 -0.186165
0.181253 0.002791 -0.180247
0.401471 0.009056 -0.170084
0.153217 0.015889 -0.186497
0.153825 0.015521 -0.191203
0.168833 -0.003694 -0.173692
0.247071 0.003615 -0.176833
0.188098 0.008247 -0.169204
0.402861 0.017325 -0.178275
0.183938 0.007028 -0.172822
0.201565 0.003150 -0.164929
0.242141 0.017972 -0.164750
0.139360 0.016174 -0.174923
0.419541 0.015234 -0.177273
0.151439 0.006900 -0.167915
0.150409 0.017444 -0.176664
0.174524 0.013006 -0.170099
0.258984 0.023045 -0.178988
0.244842 0.025363 -0.163352
0.406511 0.006389 -0.169562
0.156179 0.009802 -0.165654
0.395979 0.018943 -0.180186
0.179673 0.025494 -0.186511
0.173753 0.034557 -0.182118
0.187725 0.005059 -0.178618
0.184531 0.033629 -0.173000
0.142841 0.031996 -0.171297
0.158675 0.021621 -0.184697
0.257473 0.022445 -0.175528
0.405078 0.014871 -0.178269
0.157577 0.016690 -0.191251
0.163053 0.019078 -0.181880
0.168190 0.014392 -0.174205
0.391147 0.028990 -0.191840
0.161744 0.024123 -0.197281
0.158737 0.038581 -0.166993
0.176369 0.006638 -0.172921
0.181129 0.042320 -0.181118
0.409280 0.037483 -0.164475
0.163261 0.019364 -0.191407
0.192156 0.025483 -0.171395
0.406961 0.021165 -0.182774
0.158283 0.044618 -0.176652
0.411781 0.033589 -0.185186
0.251289 0.030238 -0.174429
0.276253 0.025808 -0.176098
0.403409 0.026657 -0.169954
0.284978 0.029572 -0.182354
0.403173 0.039015 -0.182499
0.388243 0.035163 -0.189318
0.281840 0.037829 -0.193526
0.406861 0.038115 -0.190786
0.270103 0.064926 -0.171903
0.399877 0.057682 -0.175618
0.399289 0.052895 -0.165488
0.354437 0.045133 -0.187018
0.376136 0.048510 -0.173916
0.413843 0.048066 -0.190903
0.361226 0.060905 -0.177080
0.348299 0.050079 -0.183270
0.371254 0.055845 -0.183560
0.372901 0.040292 -0.179158
0.285107 0.063211 -0.175544
0.353817 0.055221 -0.183157
0.364210 0.067022 -0.168911
0.378464 0.030588 -0.166529
0.373973 0.057132 -0.178047
0.378871 0.056459 -0.187128
0.380897 0.056098 -0.172630
0.373704 0.047990 -0.167038
0.407875 0.051526 -0.169688
0.284925 0.056350 -0.182204
0.366549 0.053534 -0.182803
0.373090 0.053209 -0.172865
0.374614 0.063961 -0.183747
0.411602 0.056483 -0.183160
0.298331 0.059473 -0.176159
0.352343 0.063015 -0.176164
0.363500 0.052967 -0.177102
0.373538 0.060560 -0.158942
0.375188 0.063475 -0.180859
0.286416 0.066129 -0.176574
0.346472 0.054535 -0.179386
0.375820 0.071476 -0.194944
0.383169 0.060201 -0.169879
0.287502 0.064191 -0.175152
0.354642 0.066952 -0.182463
0.361880 0.067433 -0.175571
0.367600 0.072050 -0.174398
0.281445 0.066504 -0.177928
0.283033 0.062810 -0.183329
0.349131 0.055153 -0.185934
0.367518 0.070699 -0.181122
0.376490 0.066233 -0.177557
0.293850 0.079883 -0.171917
0.378571 0.064620 -0.168673
0.360134 0.066079 -0.176990
0.381294 0.075970 -0.196496
0.299141 0.077939 -0.167477
0.350600 0.080797 -0.192933
0.344602 0.064686 -0.176117
0.337985 0.069280 -0.187849
0.359736 0.077170 -0.184923
0.378335 0.066927 -0.176724
0.366687 0.051862 -0.180609
0.384167 0.060314 -0.181864
0.377112 0.070534 -0.174874
0.338326 0.073772 -0.165574
0.383811 0.066266 -0.175131
0.375205 0.077130 -0.167732
0.308403 0.079891 -0.178029
0.310580 0.075613 -0.187397
0.301143 0.074785 -0.173224
0.315000 0.067323 -0.177834
0.321535 0.058697 -0.175165
0.298187 0.078332 -0.165445
0.315601 0.072112 -0.167186
0.310321 0.085256 -0.199777
0.196359 0.107522 -0.186707
0.173921 0.089442 -0.182947
0.177283 0.094510 -0.176612
0.181760 0.098351 -0.184680
0.177291 0.095057 -0.169697
0.190725 0.095302 -0.168131
0.193228 0.081372 -0.182161
0.182298 0.088722 -0.179189
0.194765 0.096520 -0.177943
0.187273 0.102837 -0.184342
0.187883 0.115003 -0.167348
0.205939 0.099503 -0.166950
0.198115 0.102565 -0.161241
0.203174 0.098720 -0.191087
0.191795 0.086817 -0.182621
0.195877 0.096908 -0.177947
0.178199 0.104090 -0.195804
0.184026 0.105643 -0.175145
0.187965 0.099637 -0.184015
0.185786 0.100413 -0.186913
0.189288 0.110801 -0.185224
0.189245 0.107211 -0.183102
0.349315 -0.043354 -0.181247
0.360647 -0.049646 -0.179406
0.366430 -0.045186 -0.176753
0.374854 -0.034721 -0.169579
0.373849 -0.045933 -0.175863
0.371920 -0.048108 -0.172302
0.371986 -0.031270 -0.186818
0.357812 -0.037271 -0.172929
0.376357 -0.050921 -0.189655
0.363234 -0.040276 -0.175396
0.343219 -0.047071 -0.188181
0.380232 -0.052316 -0.175006
0.393608 -0.042815 -0.175064
0.374611 -0.033576 -0.183987
0.371358 -0.050984 -0.184879
0.374735 -0.030945 -0.179838
0.369081 -0.041798 -0.171691
0.369225 -0.023820 -0.175552
0.375150 -0.037167 -0.180646
0.275035 -0.035717 -0.182195
0.281434 -0.039770 -0.183571
0.302938 -0.041692 -0.168986
0.321841 -0.033207 -0.164757
0.324422 -0.025119 -0.168875
0.318328 -0.040191 -0.175870
0.379991 -0.046857 -0.178091
0.279772 -0.028333 -0.180705
0.344944 -0.030679 -0.167692
0.327888 -0.026536 -0.176568
0.340907 -0.035944 -0.165271
0.346391 -0.020036 -0.182406
0.352903 -0.024472 -0.188505
0.353732 -0.026632 -0.174595
0.386970 -0.026394 -0.176340
0.391055 -0.039477 -0.182686
0.389503 -0.033780 -0.170256
0.383274 -0.018380 -0.193425
0.387666 -0.032965 -0.175804
0.394991 -0.026951 -0.170600
0.280185 -0.019622 -0.173453
0.347532 -0.027520 -0.160543
0.349297 -0.020427 -0.184008
0.281789 -0.025095 -0.178587
0.409480 -0.030214 -0.172240
0.418963 -0.039841 -0.181610
0.419931 -0.017564 -0.170813
0.267429 -0.008638 -0.170710
0.414364 -0.021686 -0.170713
0.408541 -0.011011 -0.162717
0.242614 -0.029166 -0.179124
0.248772 0.001498 -0.176045
0.251292 -0.021023 -0.182490
0.254095 0.003483 -0.171363
0.166636 -0.012819 -0.172228
0.156260 -0.011171 -0.174374
0.167892 -0.018867 -0.180617
0.180189 0.001204 -0.174186
0.179434 -0.009176 -0.164738
0.170645 -0.007182 -0.180270
0.198037 -0.009172 -0.165770
0.197258 -0.004741 -0.175175
0.186401 -0.001269 -0.177408
0.237558 -0.005244 -0.168762
0.151307 -0.010078 -0.162841
0.185819 -0.010724 -0.165592
0.151967 0.000225 -0.170190
0.186199 0.012424 -0.171187
0.192191 -0.005787 -0.178356
0.196963 -0.002519 -0.167699
0.244921 0.001813 -0.174042
0.233743 0.000437 -0.169352
0.133818 -0.010754 -0.197663
0.155673 -0.006896 -0.180053
0.195589 0.002776 -0.176246
0.420617 0.004439 -0.176875
0.138807 -0.004699 -0.174093
0.185130 -0.010651 -0.191392
0.261196 0.013252 -0.177455
0.139220 -0.007435 -0.177398
0.414477 -0.004006 -0.163031
0.197242 0.000435 -0.172200
0.237573 0.015313 -0.176318
0.407175 0.009249 -0.174323
0.138219 0.018512 -0.163006
0.148840 0.008501 -0.177503
0.197433 0.017408 -0.168078
0.191073 0.025120 -0.165499
0.192661 0.029279 -0.165614
0.254952 0.023914 -0.186985
0.406523 -0.000314 -0.172970
0.254910 0.016560 -0.185729
0.143845 0.021383 -0.175509
0.183475 0.018660 -0.172145
0.392825 0.021558 -0.177470
0.419600 0.029176 -0.178991
0.152991 0.032757 -0.189786
0.235118 0.014941 -0.166230
0.401667 0.032750 -0.159258
0.151867 0.032648 -0.163407
0.177280 0.035785 -0.165988
0.189642 0.017959 -0.176977
0.194374 0.036196 -0.174060
0.157662 0.028168 -0.185062
0.272917 0.036614 -0.178530
0.396528 0.031212 -0.179186
0.158990 0.043732 -0.159982
0.163702 0.054209 -0.169757
0.251857 0.044828 -0.187799
0.404587 0.039584 -0.172755
0.403784 0.030515 -0.177150
0.266183 0.036983 -0.173148
0.417300 0.048337 -0.179174
0.409369 0.048629 -0.168935
0.277487 0.052816 -0.173472
0.398873 0.061841 -0.177591
0.388208 0.044854 -0.179468
0.263041 0.064214 -0.154417
0.367909 0.062285 -0.170433
0.376520 0.059868 -0.166516
0.368947 0.065867 -0.173902
0.403564 0.060456 -0.189452
0.369927 0.064683 -0.167317
0.407806 0.079073 -0.175790
0.378584 0.079917 -0.168869
0.255520 0.063873 -0.175885
0.355039 0.059726 -0.176081
0.374930 0.073990 -0.190541
0.353625 0.067569 -0.170277
0.369787 0.060543 -0.178425
0.385513 0.066704 -0.174975
0.412086 0.063489 -0.180709
0.275883 0.067684 -0.177494
0.348908 0.056508 -0.181665
0.381636 0.068985 -0.169672
0.396121 0.088919 -0.177199
0.357258 0.092441 -0.168429
0.354685 0.074706 -0.188703
0.378247 0.074046 -0.183651
0.377019 0.078277 -0.174530
0.370986 0.063327 -0.171248
0.291818 0.069108 -0.173478
0.294781 0.070342 -0.185993
0.345077 0.084295 -0.182699
0.346242 0.080269 -0.182583
0.372740 0.081556 -0.169709
0.379394 0.079839 -0.168735
0.285815 0.071474 -0.167505
0.310589 0.096931 -0.167228
0.314102 0.085327 -0.184765
0.324874 0.078227 -0.170480
0.332699 0.081660 -0.175096
0.342896 0.086897 -0.174991
0.328977 0.075828 -0.179229
0.306147 0.080646 -0.176037
0.314916 0.089621 -0.185839
0.189510 0.092188 -0.188570
0.176486 0.090578 -0.172076
0.182412 0.077884 -0.183051
0.190911 0.086378 -0.179117
0.191772 0.093738 -0.162210
0.200801 0.091766 -0.169782
0.209483 0.098508 -0.175821
0.170240 0.095986 -0.183561
0.204084 0.104705 -0.169465
0.188516 0.107898 -0.177172
0.211747 0.089476 -0.164167
0.178577 0.098903 -0.176209
0.181938 0.102337 -0.193304
0.197675 0.099973 -0.164606
0.170012 0.104642 -0.168032
0.206288 0.104846 -0.172061
0.184047 0.110567 -0.170728
0.192199 0.098137 -0.162070
0.201947 0.109212 -0.169665
0.175034 0.116820 -0.173003
0.372014 -0.058242 -0.172124
0.356246 -0.056260 -0.176612
0.360240 -0.058486 -0.174126
0.362937 -0.050565 -0.177707
0.363498 -0.062107 -0.184488
0.327514 -0.053922 -0.176054
0.345451 -0.059682 -0.175221
0.338824 -0.043548 -0.174135
0.350340 -0.034935 -0.163745
0.342598 -0.050342 -0.177017
0.363712 -0.058560 -0.157306
0.370308 -0.056428 -0.173826
0.327631 -0.050561 -0.178334
0.369252 -0.037802 -0.173185
0.380203 -0.052908 -0.174548
0.341637 -0.036755 -0.167291
0.344660 -0.051056 -0.182992
0.358899 -0.040887 -0.167936
0.375321 -0.034195 -0.170292
0.367761 -0.051718 -0.167455
0.342351 -0.042855 -0.166794
0.341478 -0.047399 -0.180459
0.332011 -0.026768 -0.173893
0.347030 -0.027687 -0.184610
0.347556 -0.024881 -0.178046
0.360001 -0.045672 -0.180626
0.384721 -0.052800 -0.164166
0.361985 -0.046424 -0.180919
0.325760 -0.047872 -0.171843
0.360823 -0.042908 -0.168965
0.380979 -0.033856 -0.177554
0.341137 -0.034081 -0.170130
0.320534 -0.040094 -0.165674
0.341561 -0.051781 -0.162888
0.343249 -0.028049 -0.155964
0.342724 -0.026505 -0.169746
0.333600 -0.043122 -0.174880
0.347427 -0.037718 -0.168722
0.362376 -0.037936 -0.187349
0.386216 -0.040601 -0.166857
0.288498 -0.033588 -0.174750
0.302581 -0.041192 -0.171807
0.308328 -0.033511 -0.175629
0.329799 -0.033962 -0.182695
0.351586 -0.024316 -0.179867
0.282004 -0.031897 -0.182645
0.276158 -0.029594 -0.165108
0.282736 -0.028880 -0.173786
0.298079 -0.032755 -0.185180
0.350910 -0.015182 -0.166302
0.379256 -0.021879 -0.179532
0.270784 -0.035383 -0.172010
0.402056 -0.040652 -0.187024
0.392738 -0.027053 -0.168418
0.275189 -0.041110 -0.173514
0.403907 -0.030223 -0.175040
0.398276 -0.039894 -0.179810
0.268697 0.000837 -0.170066
0.260950 -0.022950 -0.170452
0.241906 -0.024937 -0.167805
0.250002 -0.028436 -0.169195
0.182370 -0.029902 -0.182824
0.184419 -0.016261 -0.165589
0.185128 -0.022041 -0.156945
0.249392 -0.024732 -0.168584
0.254381 -0.014612 -0.167752
0.174822 -0.020997 -0.163288
0.189897 -0.006383 -0.184918
0.193615 -0.021134 -0.162866
0.188323 -0.010919 -0.165545
0.192012 -0.011656 -0.179875
0.411130 -0.007706 -0.161955
0.151894 -0.008876 -0.156072
0.137507 -0.006232 -0.164571
0.156374 -0.019176 -0.173750
0.199011 -0.010917 -0.181150
0.207409 -0.010506 -0.175969
0.209309 -0.020789 -0.180015
0.259263 -0.003477 -0.174507
0.394892 0.005295 -0.163856
0.159292 -0.018787 -0.179041
0.191637 -0.011670 -0.164760
0.244956 -0.008905 -0.177957
0.228532 -0.017428 -0.171119
0.424116 -0.005447 -0.162279
0.207198 -0.004572 -0.163066
0.132291 -0.001836 -0.158598
0.413585 -0.006757 -0.174231
0.190742 0.000640 -0.175170
0.206276 -0.002615 -0.158356
0.208985 0.000155 -0.171661
0.247223 -0.004192 -0.174524
0.246047 0.004733 -0.175239
0.400909 0.009961 -0.165529
0.200962 -0.008175 -0.167018
0.407616 0.010765 -0.167991
0.134169 0.004559 -0.165538
0.130666 0.008803 -0.163119
0.195816 0.012521 -0.189754
0.210456 0.012575 -0.183030
0.250099 0.001729 -0.176947
0.403910 0.012567 -0.179955
0.142387 0.005537 -0.174648
0.409097 0.011050 -0.180657
0.147337 0.027559 -0.166845
0.181560 0.020000 -0.169025
0.202679 0.033623 -0.172935
0.245350 0.021336 -0.177748
0.395819 0.007259 -0.177941
0.142224 0.018208 -0.172869
0.198141 0.025383 -0.167100
0.405782 0.014637 -0.171730
0.132316 0.024036 -0.166944
0.142914 0.029725 -0.178744
0.141269 0.028522 -0.169338
0.185127 0.034162 -0.169649
0.411971 0.023885 -0.168166
0.184001 0.036423 -0.163788
0.182641 0.048916 -0.166029
0.180486 0.032054 -0.177835
0.183562 0.030620 -0.158207
0.266886 0.045262 -0.165028
0.409938 0.031361 -0.177944
0.166181 0.039609 -0.163975
0.171208 0.038301 -0.184005
0.162556 0.043918 -0.160420
0.169746 0.047497 -0.178972
0.170683 0.041019 -0.166075
0.404812 0.044320 -0.175413
0.263295 0.033451 -0.180689
0.405759 0.045846 -0.168380
0.275581 0.036645 -0.186772
0.420734 0.036569 -0.172682
0.401069 0.044358 -0.172289
0.396406 0.050620 -0.172631
0.273726 0.067625 -0.173667
0.407314 0.059409 -0.183911
0.418731 0.059892 -0.168265
0.296746 0.061313 -0.167657
0.381824 0.048560 -0.172903
0.399899 0.053769 -0.177084
0.398615 0.067582 -0.179718
0.408692 0.053127 -0.170076
0.402929 0.050637 -0.180303
0.286576 0.048889 -0.187758
0.271126 0.064443 -0.176992
0.390725 0.067758 -0.170371
0.391393 0.075251 -0.183697
0.408123 0.057891 -0.177117
0.385396 0.069386 -0.185434
0.409993 0.079992 -0.166650
0.393545 0.058054 -0.168736
0.399461 0.050639 -0.176944
0.381167 0.059084 -0.153389
0.406330 0.059041 -0.175499
0.397762 0.078465 -0.179662
0.391425 0.074990 -0.184723
0.392605 0.062515 -0.174971
0.354779 0.067111 -0.177927
0.364206 0.067821 -0.172872
0.386722 0.061132 -0.176714
0.389244 0.069679 -0.172147
0.387758 0.066842 -0.183240
0.398695 0.070691 -0.178652
0.394407 0.071686 -0.185560
0.386271 0.071488 -0.172375
0.388176 0.064577 -0.172520
0.385943 0.065951 -0.170083
0.391084 0.061859 -0.172011
0.264144 0.068101 -0.182917
0.369927 0.078186 -0.180974
0.371375 0.061922 -0.173967
0.364195 0.082258 -0.177604
0.370330 0.069680 -0.173790
0.383458 0.062722 -0.166411
0.385182 0.085794 -0.171825
0.386779 0.074202 -0.166879
0.398175 0.080662 -0.179373
0.400423 0.067622 -0.166110
0.345026 0.081609 -0.176643
0.366504 0.078524 -0.169533
0.384734 0.077290 -0.185820
0.287172 0.088899 -0.175454
0.369164 0.075040 -0.168757
0.389655 0.078921 -0.166873
0.368256 0.080434 -0.171050
0.374061 0.082071 -0.172936
0.343646 0.075696 -0.180320
0.348967 0.097130 -0.184323
0.375915 0.071961 -0.176498
0.184988 0.082482 -0.169050
0.183134 0.098044 -0.168955
0.174059 0.067444 -0.166795
0.183538 0.094684 -0.171411
0.173476 0.076858 -0.173255
0.311862 0.088243 -0.173514
0.297482 0.085227 -0.178893
0.324424 0.078897 -0.170354
0.322234 0.093525 -0.165129
0.326688 0.101016 -0.161961
0.174842 0.083790 -0.181682
0.189369 0.072889 -0.171963
0.292560 0.098953 -0.185072
0.333542 0.081664 -0.166835
0.339316 0.094555 -0.171972
0.176193 0.085960 -0.171246
0.188937 0.079544 -0.173032
0.203822 0.101175 -0.181406
0.193697 0.105829 -0.180416
0.211523 0.101569 -0.171854
0.204133 0.100602 -0.177810
0.186878 0.092989 -0.176929
0.199568 0.093902 -0.166408
0.175549 0.102764 -0.180139
0.197991 0.115684 -0.174407
0.183355 0.114606 -0.169134
0.189504 0.105950 -0.165588
0.191950 0.107466 -0.177713
0.353827 -0.068612 -0.174893
0.345919 -0.061772 -0.158302
0.339385 -0.058098 -0.185369
0.370643 -0.059885 -0.168511
0.360284 -0.056269 -0.161424
0.378484 -0.060604 -0.172559
0.339723 -0.064486 -0.164931
0.338939 -0.044499 -0.160323
0.349344 -0.050333 -0.167649
0.325618 -0.051603 -0.148608
0.337809 -0.057148 -0.182991
0.352384 -0.048194 -0.165715
0.339717 -0.051898 -0.171238
0.354270 -0.063086 -0.164777
0.332691 -0.061896 -0.162188
0.342432 -0.056136 -0.167314
0.359331 -0.037737 -0.187668
0.361662 -0.068391 -0.175955
0.368945 -0.063867 -0.169154
0.358356 -0.041978 -0.168586
0.322650 -0.042025 -0.173940
0.379472 -0.046367 -0.170049
0.374657 -0.058839 -0.162020
0.391569 -0.058161 -0.171950
0.382787 -0.056730 -0.173701
0.342334 -0.045351 -0.155966
0.386960 -0.043564 -0.177572
0.386917 -0.039933 -0.147017
0.325981 -0.038749 -0.171659
0.332359 -0.042975 -0.171034
0.306732 -0.042294 -0.175791
0.310314 -0.033762 -0.175981
0.318981 -0.028131 -0.177886
0.391204 -0.048422 -0.171064
0.290258 -0.038361 -0.161728
0.384242 -0.041660 -0.177545
0.383338 -0.025271 -0.173087
0.268268 -0.035672 -0.164459
0.267331 -0.032037 -0.176226
0.381109 -0.017598 -0.181065
0.400828 -0.023336 -0.162905
0.405533 -0.025019 -0.164502
0.383431 -0.030743 -0.186956
0.263547 -0.031979 -0.166265
0.408724 -0.025020 -0.151962
0.257283 -0.027256 -0.173416
0.250550 -0.036375 -0.164387
0.254487 -0.019261 -0.156746
0.246664 -0.020694 -0.156842
0.418103 -0.037400 -0.173063
0.398770 -0.029710 -0.155914
0.409089 -0.023191 -0.181629
0.242512 -0.020966 -0.168614
0.239748 -0.013562 -0.179711
0.175156 -0.030554 -0.163933
0.175615 -0.019879 -0.177272
0.177110 -0.017925 -0.173080
0.180373 -0.023819 -0.182074
0.190552 -0.021667 -0.153876
0.204365 -0.024524 -0.176328
0.198780 -0.013819 -0.172422
0.198960 -0.012557 -0.181094
0.212737 -0.017666 -0.175411
0.210083 -0.011462 -0.169312
0.209867 -0.006405 -0.162815
0.242512 -0.002794 -0.178500
0.254896 -0.013086 -0.167784
0.163380 -0.017229 -0.168457
0.145291 -0.019403 -0.156430
0.140188 0.001246 -0.167677
0.210513 -0.007677 -0.162039
0.234538 -0.003423 -0.176361
0.140590 -0.012183 -0.171371
0.214600 0.000640 -0.172123
0.235237 -0.001700 -0.162414
0.399977 -0.005351 -0.169280
0.203388 0.003142 -0.168639
0.208353 0.002365 -0.167480
0.423967 0.008382 -0.178905
0.210726 0.006760 -0.177712
0.123286 0.011811 -0.175765
0.202156 0.003472 -0.175238
0.136041 -0.002302 -0.168265
0.410488 0.007007 -0.159124
0.115157 -0.000283 -0.180715
0.213416 0.022825 -0.178134
0.240212 0.011097 -0.165459
0.243188 0.023111 -0.169774
0.143326 0.018696 -0.174305
0.245855 0.021909 -0.176268
0.193390 0.016645 -0.161770
0.408733 0.013819 -0.171224
0.133448 0.018827 -0.166160
0.248607 0.025031 -0.182005
0.414998 0.017971 -0.172967
0.124078 0.026368 -0.171938
0.411884 0.006497 -0.184194
0.133798 0.031965 -0.171633
0.193497 0.018304 -0.184172
0.256526 0.015260 -0.154383
0.425010 0.026218 -0.179834
0.143714 0.032324 -0.159489
0.194814 0.022226 -0.168743
0.265066 0.040565 -0.187881
0.258130 0.035088 -0.169178
0.153596 0.030387 -0.165176
0.140986 0.051149 -0.169812
0.175171 0.038669 -0.166727
0.414500 0.033655 -0.175662
0.149171 0.043485 -0.163857
0.185726 0.043149 -0.162737
0.176993 0.038526 -0.174666
0.177206 0.038133 -0.165069
0.391713 0.052414 -0.154936
0.167886 0.045818 -0.164145
0.268076 0.054982 -0.165585
0.409454 0.046443 -0.166056
0.163499 0.045425 -0.172626
0.179531 0.036889 -0.166722
0.175691 0.061653 -0.168729
0.266694 0.056559 -0.165366
0.410160 0.053670 -0.181443
0.411109 0.033180 -0.182646
0.270069 0.060966 -0.157133
0.422505 0.052990 -0.166709
0.407043 0.060081 -0.183660
0.402612 0.057844 -0.171001
0.266371 0.063256 -0.171557
0.417736 0.066788 -0.168137
0.270026 0.066258 -0.173449
0.404843 0.064539 -0.177162
0.291393 0.082032 -0.166123
0.406112 0.081996 -0.187828
0.280079 0.069529 -0.182018
0.394308 0.076963 -0.187272
0.390410 0.068844 -0.167734
0.384818 0.078448 -0.163134
0.167750 0.059827 -0.176330
0.186503 0.080515 -0.181041
0.186077 0.076018 -0.164216
0.179426 0.080674 -0.172882
0.355852 0.082248 -0.165172
0.354713 0.078751 -0.180598
0.368585 0.089487 -0.158524
0.379642 0.085223 -0.172457
0.388645 0.079291 -0.170234
0.392217 0.075147 -0.176682
0.397571 0.079995 -0.173500
0.386471 0.083815 -0.175830
0.190178 0.066084 -0.179482
0.177340 0.095233 -0.169756
0.177241 0.072241 -0.169099
0.273819 0.079570 -0.174558
0.279226 0.094117 -0.154547
0.355786 0.071741 -0.174730
0.365460 0.086114 -0.159586
0.371071 0.083461 -0.173284
0.392661 0.082806 -0.169742
0.179407 0.083932 -0.180728
0.364778 0.087210 -0.159696
0.370942 0.079282 -0.161921
0.375660 0.097750 -0.169851
0.366988 0.096614 -0.164316
0.382813 0.086989 -0.166442
0.393481 0.077032 -0.164787
0.200571 0.097348 -0.169417
0.280625 0.090547 -0.178067
0.357965 0.076377 -0.172646
0.353637 0.081190 -0.174510
0.381346 0.095602 -0.156635
0.183727 0.089830 -0.169290
0.348097 0.092994 -0.175062
0.359804 0.086913 -0.160502
0.197002 0.084624 -0.159671
0.218513 0.086697 -0.160304
0.301484 0.082919 -0.171952
0.302772 0.085128 -0.167475
0.340240 0.092596 -0.163984
0.361483 0.097237 -0.178861
0.381228 0.089491 -0.178549
0.367318 0.104518 -0.164597
0.181637 0.091637 -0.167618
0.198566 0.090350 -0.172326
0.314027 0.098559 -0.161984
0.321615 0.100097 -0.170870
0.329760 0.094489 -0.174504
0.178127 0.108067 -0.151925
0.224405 0.101063 -0.176583
0.311496 0.081590 -0.165831
0.327247 0.093100 -0.165768
0.338211 0.089767 -0.157228
0.183978 0.099409 -0.164184
0.214192 0.102445 -0.167660
0.162635 0.114906 -0.177752
0.212056 0.100726 -0.165751
0.170645 0.119752 -0.176898
0.209262 0.100264 -0.175740
0.180850 0.118592 -0.166642
0.197112 0.100411 -0.171693
0.206622 0.110993 -0.160762
0.175376 0.112365 -0.160204
0.198389 0.106436 -0.175253
0.180436 0.104305 -0.175465
0.348619 -0.058701 -0.176344
0.344322 -0.052108 -0.169008
0.339824 -0.069616 -0.184235
0.336893 -0.068117 -0.160190
0.351240 -0.062356 -0.158891
0.352647 -0.073355 -0.163637
0.353021 -0.058047 -0.165441
0.381916 -0.067302 -0.156322
0.364679 -0.063344 -0.160562
0.343157 -0.072319 -0.181593
0.368303 -0.060701 -0.151839
0.379111 -0.051547 -0.168593
0.341992 -0.049953 -0.173461
0.319060 -0.042342 -0.165979
0.377001 -0.044980 -0.173409
0.388150 -0.048614 -0.179459
0.330304 -0.043543 -0.172356
0.337619 -0.046588 -0.161507
0.383782 -0.041408 -0.170854
0.380246 -0.043770 -0.166373
0.320736 -0.041111 -0.171731
0.322310 -0.039131 -0.176285
0.387838 -0.035975 -0.171822
0.278268 -0.049657 -0.178579
0.272072 -0.048521 -0.166862
0.284009 -0.048582 -0.160564
0.386046 -0.041976 -0.167448
0.261140 -0.026449 -0.157483
0.266392 -0.038111 -0.166950
0.392583 -0.029813 -0.165719
0.414488 -0.026263 -0.179352
0.251304 -0.022147 -0.168496
0.410969 -0.046893 -0.161634
0.404717 -0.021243 -0.161903
0.184687 -0.023896 -0.160607
0.187228 -0.026253 -0.152111
0.236683 -0.020243 -0.150603
0.173661 -0.020108 -0.172517
0.196993 -0.017167 -0.180201
0.201274 -0.006496 -0.171443
0.211939 -0.025906 -0.160027
0.199777 -0.013858 -0.174421
0.219688 -0.013974 -0.181097
0.218490 -0.023839 -0.164474
0.222617 -0.008882 -0.173743
0.236839 -0.021204 -0.168128
0.246488 -0.030079 -0.164309
0.240617 -0.017980 -0.162418
0.156610 -0.015516 -0.159393
0.160124 -0.018783 -0.140933
0.150133 -0.015707 -0.171270
0.218592 -0.004781 -0.170000
0.222531 -0.020140 -0.157199
0.219687 -0.016492 -0.167200
0.227963 -0.027063 -0.161217
0.220169 -0.006399 -0.159747
0.224420 -0.020085 -0.166309
0.210336 -0.005672 -0.165561
0.398028 -0.015220 -0.166474
0.130426 -0.020013 -0.163425
0.213359 -0.005515 -0.185540
0.232681 -0.014477 -0.162031
0.233353 -0.013448 -0.175448
0.406232 -0.008660 -0.164696
0.205815 -0.011510 -0.167587
0.238024 0.003405 -0.171515
0.416138 -0.012740 -0.176390
0.133827 -0.011033 -0.161196
0.213706 -0.010841 -0.171341
0.222938 -0.003158 -0.168013
0.242683 -0.020512 -0.169730
0.410871 -0.006950 -0.169664
0.150735 -0.005013 -0.166688
0.409447 0.000991 -0.169507
0.216450 0.004564 -0.173498
0.243574 0.000610 -0.163044
0.110150 0.011007 -0.160582
0.220747 -0.003331 -0.170633
0.416610 0.004807 -0.172970
0.226390 0.000224 -0.167342
0.416253 0.000199 -0.162567
0.121219 0.013795 -0.159084
0.208438 -0.004984 -0.170847
0.253250 0.006009 -0.162850
0.200288 0.009737 -0.166725
0.255707 0.014505 -0.169333
0.131610 0.017197 -0.149002
0.247991 0.024669 -0.172654
0.417300 0.018268 -0.171001
0.117363 0.026579 -0.161316
0.255508 0.020464 -0.171364
0.251669 0.023556 -0.179183
0.211025 0.023351 -0.148440
0.252701 0.024825 -0.166408
0.205624 0.034487 -0.164016
0.204018 0.028592 -0.170036
0.114973 0.042416 -0.175394
0.422620 0.027172 -0.164916
0.128474 0.018869 -0.164407
0.414859 0.010538 -0.156640
0.204223 0.035781 -0.174349
0.248450 0.038644 -0.164472
0.149371 0.031329 -0.181465
0.264714 0.019624 -0.164886
0.408167 0.051977 -0.177872
0.419998 0.041370 -0.166465
0.194251 0.039414 -0.170477
0.406517 0.044423 -0.170762
0.166218 0.057536 -0.174383
0.150428 0.054368 -0.181652
0.168018 0.064348 -0.176621
0.171885 0.049571 -0.167873
0.180555 0.037231 -0.174779
0.275920 0.037981 -0.168770
0.407857 0.046673 -0.173580
0.187527 0.034020 -0.164473
0.403351 0.049544 -0.173230
0.170371 0.051550 -0.170729
0.265645 0.055225 -0.178800
0.163637 0.055436 -0.161765
0.399364 0.053192 -0.155722
0.261137 0.067641 -0.175462
0.413005 0.050559 -0.169623
0.412972 0.053953 -0.180174
0.265355 0.061758 -0.167544
0.420730 0.069735 -0.165566
0.265098 0.075704 -0.167440
0.406168 0.073781 -0.177975
0.159740 0.076567 -0.163246
0.132123 0.047390 -0.165663
0.136589 0.082170 -0.157459
0.145245 0.075887 -0.173126
0.157433 0.070374 -0.175680
0.253062 0.073349 -0.175690
0.402986 0.079292 -0.166252
0.156447 0.076257 -0.167330
0.150368 0.066319 -0.169245
0.157551 0.058587 -0.165084
0.178616 0.078590 -0.170812
0.193826 0.089708 -0.159739
0.171611 0.080779 -0.162179
0.189398 0.068212 -0.178593
0.180764 0.080542 -0.158459
0.189691 0.058510 -0.172894
0.186908 0.068054 -0.171435
0.267060 0.073012 -0.163455
0.389658 0.075089 -0.173398
0.155053 0.075277 -0.167758
0.169387 0.069915 -0.163243
0.165558 0.078016 -0.165394
0.190418 0.080181 -0.163328
0.145534 0.082575 -0.177271
0.180556 0.080687 -0.177240
0.271540 0.081293 -0.167584
0.267740 0.083497 -0.159530
0.145612 0.091116 -0.173440
0.138986 0.083272 -0.172355
0.152637 0.066488 -0.173502
0.152031 0.085694 -0.171505
0.165672 0.086589 -0.164941
0.172182 0.078768 -0.165142
0.185622 0.081732 -0.168312
0.365893 0.088736 -0.167465
0.390261 0.078660 -0.173689
0.156819 0.087379 -0.168533
0.199833 0.074534 -0.156719
0.198724 0.069470 -0.151089
0.273801 0.079034 -0.153096
0.369827 0.086647 -0.169723
0.367860 0.083698 -0.166604
0.394793 0.089461 -0.166214
0.397634 0.087279 -0.173370
0.144773 0.083487 -0.176364
0.149820 0.092001 -0.160647
0.171913 0.092311 -0.175520
0.170311 0.084193 -0.164653
0.270020 0.086613 -0.170567
0.362015 0.081617 -0.149474
0.368037 0.094384 -0.162617
0.378785 0.083945 -0.177981
0.386843 0.075225 -0.170592
0.389301 0.093196 -0.175409
0.145946 0.098979 -0.155255
0.197097 0.098652 -0.173101
0.280461 0.093623 -0.158055
0.285695 0.095540 -0.165253
0.381434 0.089994 -0.162403
0.387733 0.087622 -0.171804
0.219898 0.097752 -0.169768
0.209601 0.075304 -0.168724
0.297742 0.097605 -0.163535
0.330904 0.091983 -0.158455
0.375802 0.103809 -0.161603
0.373007 0.092733 -0.161230
0.368881 0.085647 -0.168410
0.385171 0.091352 -0.168106
0.376946 0.094258 -0.171213
0.387690 0.094125 -0.173535
0.190206 0.094182 -0.166341
0.301872 0.094027 -0.154483
0.320347 0.099028 -0.169253
0.334209 0.087809 -0.165267
0.352251 0.106358 -0.158399
0.369851 0.097180 -0.160588
0.379441 0.089539 -0.171777
0.376419 0.109521 -0.160634
0.375835 0.089734 -0.163949
0.180394 0.093060 -0.163246
0.218520 0.103817 -0.176837
0.301528 0.089851 -0.172127
0.318770 0.100703 -0.169009
0.329256 0.107582 -0.161869
0.380492 0.098447 -0.165916
0.379694 0.090489 -0.173951
0.371706 0.095761 -0.163465
0.161370 0.095382 -0.158204
0.218504 0.101750 -0.180086
0.316464 0.109505 -0.161703
0.372666 0.103700 -0.171895
0.404658 0.095594 -0.166821
0.218081 0.091661 -0.158916
0.385651 0.105003 -0.155805
0.370506 0.110918 -0.181252
0.196072 0.104020 -0.171531
0.176705 0.102405 -0.152071
0.177591 0.110108 -0.161940
0.206807 0.102419 -0.161067
0.371129 -0.068029 -0.181484
0.368033 -0.060237 -0.166183
0.373191 -0.068754 -0.164993
0.351799 -0.077382 -0.165323
0.348914 -0.076485 -0.165818
0.343766 -0.066086 -0.167365
0.369693 -0.061583 -0.179884
0.365749 -0.063060 -0.183343
0.342289 -0.067906 -0.174632
0.332781 -0.067052 -0.165193
0.369760 -0.068924 -0.167334
0.342340 -0.069155 -0.150795
0.335496 -0.066804 -0.168060
0.368133 -0.056381 -0.160803
0.321815 -0.061221 -0.177437
0.329832 -0.054893 -0.167315
0.375585 -0.052025 -0.159281
0.385507 -0.068050 -0.167036
0.390793 -0.064669 -0.171723
0.371569 -0.059721 -0.167033
0.320252 -0.045797 -0.165868
0.326107 -0.061811 -0.163851
0.380297 -0.059366 -0.173041
0.289425 -0.035590 -0.153842
0.287519 -0.038661 -0.156356
0.279922 -0.054903 -0.155917
0.303663 -0.047045 -0.158487
0.304233 -0.043469 -0.173400
0.315454 -0.030638 -0.171160
0.394305 -0.049668 -0.155297
0.272815 -0.050300 -0.169183
0.272363 -0.029650 -0.156649
0.402353 -0.042658 -0.165429
0.401123 -0.028821 -0.151785
0.256033 -0.032272 -0.168307
0.251382 -0.017684 -0.162350
0.406260 -0.033764 -0.168053
0.198189 -0.032986 -0.163678
0.204502 -0.040254 -0.167343
0.244736 -0.035829 -0.163268
0.183789 -0.038689 -0.144770
0.200310 -0.026199 -0.171260
0.177885 -0.020415 -0.163632
0.207961 -0.024436 -0.172768
0.205380 -0.027675 -0.165449
0.206784 -0.033022 -0.167909
0.214603 -0.035064 -0.176636
0.220783 -0.027340 -0.164612
0.221292 -0.022339 -0.162646
0.221792 -0.029877 -0.167751
0.235094 -0.039207 -0.170759
0.220256 -0.029268 -0.162533
0.242628 -0.042098 -0.168214
0.231798 -0.022599 -0.179257
0.238292 -0.020678 -0.167487
0.404261 -0.037344 -0.162526
0.160110 -0.014995 -0.151281
0.156403 -0.027813 -0.168254
0.166182 -0.025549 -0.158073
0.407715 -0.026279 -0.163633
0.157409 -0.029052 -0.153857
0.224631 -0.012083 -0.169946
0.129866 -0.003436 -0.167435
0.224782 -0.017520 -0.179493
0.215751 -0.020040 -0.169551
0.228606 -0.015957 -0.173111
0.236522 -0.005263 -0.160377
0.221411 -0.004626 -0.162111
0.232572 0.000011 -0.150876
0.228536 -0.000546 -0.170905
0.240798 -0.001543 -0.166956
0.128290 0.001987 -0.158980
0.236694 0.000242 -0.166275
0.418678 0.017555 -0.159547
0.135466 -0.006234 -0.156217
0.234922 -0.002465 -0.164029
0.227294 -0.001087 -0.168033
0.243565 0.007764 -0.155906
0.420914 0.005688 -0.159040
0.260120 0.006845 -0.170746
0.116564 0.011005 -0.177039
0.226214 0.000799 -0.160010
0.226663 0.014885 -0.159688
0.415695 0.007265 -0.161696
0.134439 0.011494 -0.171295
0.238146 0.014044 -0.167427
0.417641 0.011428 -0.156015
0.220615 0.025654 -0.161343
0.230663 0.010626 -0.163354
0.250591 0.007327 -0.167035
0.242096 0.016909 -0.179471
0.418460 0.023945 -0.161142
0.260165 0.018589 -0.167332
0.209688 0.006140 -0.165853
0.255875 0.033432 -0.169607
0.126755 0.018971 -0.155388
0.131010 0.025099 -0.150440
0.237294 0.025210 -0.171700
0.419085 0.020211 -0.172110
0.257092 0.033206 -0.156656
0.410223 0.027526 -0.170110
0.201154 0.032354 -0.169488
0.120420 0.035113 -0.165918
0.249871 0.035692 -0.170367
0.131047 0.034022 -0.169823
0.210073 0.035694 -0.153799
0.142870 0.043284 -0.152400
0.203870 0.037710 -0.151079
0.271131 0.031769 -0.168079
0.405821 0.045340 -0.162548
0.137238 0.026602 -0.156835
0.416842 0.040763 -0.167080
0.199826 0.044768 -0.179419
0.246576 0.045314 -0.172229
0.413056 0.034180 -0.165981
0.150395 0.048392 -0.148017
0.154517 0.050230 -0.159430
0.186557 0.043834 -0.176661
0.270966 0.041063 -0.166812
0.138167 0.043986 -0.167390
0.187874 0.048508 -0.170960
0.401815 0.049484 -0.167252
0.144644 0.058258 -0.173111
0.153506 0.047946 -0.165966
0.168129 0.052609 -0.158343
0.177014 0.045109 -0.167099
0.187142 0.051339 -0.176690
0.418128 0.070415 -0.156517
0.160297 0.046350 -0.155819
0.190833 0.051443 -0.160656
0.259549 0.057134 -0.172544
0.427024 0.067527 -0.166026
0.181760 0.054708 -0.169744
0.266838 0.056577 -0.170068
0.266251 0.060656 -0.175452
0.148487 0.065176 -0.152268
0.147971 0.063669 -0.139926
0.151979 0.056723 -0.160575
0.155440 0.067111 -0.173171
0.148211 0.055799 -0.156900
0.158969 0.064755 -0.170673
0.153560 0.058449 -0.163635
0.266230 0.064867 -0.169174
0.409330 0.063037 -0.167736
0.134478 0.062586 -0.163996
0.152291 0.077532 -0.164250
0.140478 0.066018 -0.175176
0.180504 0.067671 -0.166799
0.181186 0.068451 -0.160351
0.187852 0.068141 -0.165707
0.247161 0.067515 -0.169230
0.155717 0.074706 -0.167377
0.176485 0.067736 -0.168291
0.164178 0.074871 -0.162747
0.260722 0.066054 -0.170171
0.141685 0.081295 -0.163658
0.165400 0.069853 -0.169515
0.184519 0.071347 -0.176524
0.193179 0.068808 -0.163409
0.403060 0.075209 -0.162715
0.138699 0.071323 -0.164314
0.154769 0.081019 -0.155814
0.180289 0.072109 -0.159077
0.271502 0.089152 -0.167409
0.145044 0.078006 -0.174247
0.180767 0.074195 -0.166338
0.387312 0.072970 -0.153063
0.162422 0.081236 -0.167513
0.276607 0.072832 -0.162265
