-0.008128 -0.226798 0.679847
0.046976 -0.158528 0.751441
0.006880 -0.094974 0.779439
-0.028487 -0.034894 0.824730
-0.011020 -0.230786 0.670554
0.050436 -0.157443 0.725649
0.030294 -0.068403 0.789415
-0.062265 -0.049925 0.781503
-0.016885 -0.236772 0.658489
0.053295 -0.155594 0.714237
0.030402 -0.064977 0.785440
-0.061263 -0.047921 0.777027
-0.013112 -0.232764 0.651621
0.033479 -0.149429 0.719169
0.019349 -0.080870 0.739121
-0.070192 -0.044248 0.766591
-0.018118 -0.232267 0.646346
0.016604 -0.131913 0.713057
0.021836 -0.076585 0.741169
-0.097192 -0.029620 0.729222
-0.051783 -0.307276 0.575191
-0.020001 -0.227222 0.642101
0.010371 -0.136540 0.699854
-0.000194 -0.063891 0.720836
-0.109028 -0.025174 0.713309
-0.051742 -0.304958 0.572349
-0.020240 -0.225476 0.631886
0.014649 -0.134293 0.677760
-0.002866 -0.054602 0.711303
-0.108324 -0.023185 0.709288
-0.050428 -0.301239 0.565869
-0.032303 -0.222550 0.619119
0.018031 -0.122321 0.667036
0.000050 -0.045460 0.711525
-0.106604 -0.016904 0.709799
-0.043091 -0.294760 0.564918
-0.055678 -0.219963 0.591639
0.000536 -0.115592 0.657601
-0.030789 -0.038322 0.700597
-0.110610 -0.013742 0.699168
-0.032178 -0.288250 0.555663
-0.050726 -0.217844 0.584163
-0.000884 -0.112555 0.652212
-0.010671 -0.038381 0.688074
-0.105847 -0.007027 0.700474
-0.031794 -0.286989 0.547983
-0.046696 -0.212936 0.584332
-0.005497 -0.111734 0.650390
-0.008442 -0.032732 0.679447
-0.109451 -0.004638 0.691136
-0.022721 -0.281933 0.547614
-0.040184 -0.211721 0.579316
0.019694 -0.096898 0.642080
0.007381 -0.041271 0.676898
-0.101280 0.003853 0.688367
-0.017655 -0.275757 0.540320
-0.028039 -0.201297 0.584581
0.025829 -0.102701 0.624895
0.008111 -0.041033 0.671201
-0.101132 0.007511 0.684510
-0.010161 -0.269151 0.531160
-0.034709 -0.204740 0.573411
0.031562 -0.104026 0.616155
0.014483 -0.038642 0.671293
-0.098445 0.012293 0.679240
-0.002731 -0.262668 0.522832
-0.027917 -0.195351 0.565932
0.033259 -0.098735 0.609279
0.012302 -0.037869 0.659268
-0.105377 0.014412 0.656640
0.002647 -0.256992 0.517023
-0.021678 -0.183897 0.552357
0.033787 -0.095967 0.599596
0.016423 -0.032840 0.654208
-0.108621 0.020367 0.648757
0.000554 -0.254681 0.511635
-0.017679 -0.180548 0.542913
0.035656 -0.092392 0.592980
0.017775 -0.027921 0.642759
-0.112455 0.020684 0.631394
0.006542 -0.248083 0.497883
-0.011764 -0.177071 0.536810
0.039847 -0.088953 0.588948
0.020777 -0.025980 0.631795
-0.119356 0.028961 0.618460
0.002822 -0.245756 0.496421
-0.005728 -0.171938 0.527744
0.041105 -0.094228 0.579046
0.015031 -0.020344 0.626247
-0.120031 0.033138 0.616172
0.004584 -0.242793 0.491471
-0.004110 -0.166440 0.522546
0.040031 -0.088624 0.571132
-0.030129 -0.005449 0.588419
-0.114455 0.034711 0.602567
0.008652 -0.236784 0.485904
0.000527 -0.159197 0.518649
0.039945 -0.078361 0.565562
-0.053949 0.006337 0.569828
-0.102316 0.037441 0.592567
0.008921 -0.231653 0.474982
0.015450 -0.149646 0.520424
0.034669 -0.063489 0.559032
-0.090635 0.024277 0.588790
0.008804 -0.228054 0.459793
0.018815 -0.147551 0.513300
0.015673 -0.062416 0.533705
-0.038308 -0.012018 0.572937
0.010487 -0.226606 0.453671
0.026829 -0.133885 0.501501
0.002022 -0.059755 0.511760
0.012911 -0.222370 0.443266
0.026875 -0.135914 0.490827
0.015152 -0.052512 0.514180
0.016568 -0.216689 0.439036
0.030721 -0.131450 0.473601
0.023836 -0.068047 0.512066
0.020350 -0.211622 0.429194
0.030665 -0.129589 0.471431
0.026777 -0.062590 0.501084
-0.169896 -0.005543 0.513373
0.028071 -0.211377 0.426897
0.035769 -0.125754 0.469976
0.028243 -0.056678 0.498928
-0.169983 -0.002295 0.498459
0.032863 -0.207632 0.422910
0.033037 -0.120047 0.468350
0.029612 -0.052821 0.491413
-0.164851 0.002541 0.487125
0.030647 -0.205353 0.412530
0.033219 -0.114587 0.462892
0.031049 -0.049427 0.484323
-0.162650 0.005148 0.480305
0.030145 -0.202765 0.405477
0.036753 -0.121216 0.449027
0.030154 -0.045357 0.472103
-0.163625 0.010547 0.467750
0.030256 -0.199139 0.396211
0.036366 -0.114971 0.441063
0.035228 -0.042841 0.459934
-0.159527 0.012484 0.465711
0.027574 -0.196700 0.388076
0.034191 -0.111919 0.427814
0.033791 -0.040388 0.448567
-0.153202 0.018211 0.454036
0.004742 -0.190788 0.361517
0.022190 -0.103365 0.416037
0.036970 -0.036927 0.442931
-0.141327 0.024999 0.447174
-0.001385 -0.190656 0.343079
0.020683 -0.097930 0.411689
0.035808 -0.034397 0.433703
-0.102701 0.036858 0.429439
0.002973 -0.187764 0.342561
0.021791 -0.089607 0.395487
0.032145 -0.031403 0.424178
-0.096388 0.043943 0.417386
0.006522 -0.184881 0.338619
0.010352 -0.092423 0.386977
0.030475 -0.033538 0.418838
-0.088606 0.053080 0.415346
0.007096 -0.182405 0.333661
-0.004159 -0.099986 0.375317
0.031711 -0.029952 0.410497
-0.093353 0.057225 0.406080
0.010264 -0.177323 0.330076
-0.006046 -0.099135 0.368698
0.029342 -0.018511 0.402649
-0.081293 0.061932 0.407891
0.015332 -0.172710 0.317167
-0.013404 -0.096021 0.365003
0.029549 -0.018861 0.392645
-0.082365 0.065065 0.402475
0.017747 -0.167268 0.308583
-0.025849 -0.094768 0.339875
0.018693 -0.012414 0.350117
-0.080173 0.068419 0.396561
0.026105 -0.162710 0.301082
-0.025493 -0.091271 0.331290
0.014680 -0.016879 0.352188
-0.078259 0.072571 0.392487
0.022494 -0.159811 0.292750
-0.027409 -0.090708 0.318079
-0.054703 0.019161 0.328426
-0.075637 0.074533 0.385551
0.020823 -0.156124 0.284256
-0.023585 -0.090096 0.302228
0.007207 -0.017188 0.338894
-0.086216 0.072329 0.378920
0.018902 -0.152717 0.274939
-0.024424 -0.079433 0.293135
-0.086063 0.070364 0.365867
0.015638 -0.147938 0.270357
-0.024375 -0.075943 0.275964
-0.090279 0.071012 0.357011
0.011247 -0.145875 0.260705
-0.018310 -0.069436 0.270381
-0.116595 0.096152 0.325467
-0.002471 -0.134005 0.239002
-0.016621 -0.065329 0.265369
-0.100139 0.109233 0.322324
-0.036902 -0.197564 0.125026
-0.003533 -0.129714 0.237441
-0.002039 -0.072534 0.255264
-0.071464 0.107944 0.311196
-0.006737 -0.207488 0.174284
-0.021787 -0.131995 0.225719
-0.002553 -0.065470 0.246762
-0.069538 0.106823 0.309941
-0.000469 -0.205907 0.168762
-0.007190 -0.124101 0.225460
-0.004222 -0.062612 0.238550
-0.073668 0.111531 0.298520
0.007542 -0.203837 0.164185
-0.003197 -0.059413 0.233704
-0.098453 0.106468 0.296109
0.044400 -0.179098 0.159341
-0.005379 -0.047077 0.207356
-0.223827 0.082676 0.196528
0.055152 -0.173416 0.166818
-0.043214 -0.130452 0.118243
-0.003651 -0.050049 0.187913
-0.554706 0.039458 -0.003180
0.056772 -0.173505 0.155055
-0.036884 -0.122879 0.139114
-0.005550 -0.048056 0.175918
-0.662670 0.018124 -0.054401
-0.149793 0.193426 0.265787
0.054288 -0.176479 0.142540
-0.036027 -0.121583 0.137826
-0.001560 -0.045230 0.178923
-0.284549 0.078924 0.154938
-0.119499 0.191666 0.268981
0.057170 -0.176362 0.135795
-0.033170 -0.119772 0.135715
-0.183486 0.113659 0.193826
-0.102332 0.193608 0.260417
0.108632 -0.168375 0.144806
-0.032667 -0.116965 0.133066
-0.154317 0.111323 0.197222
-0.070405 0.197454 0.258884
0.112763 -0.164113 0.146137
-0.030787 -0.108854 0.123936
-0.131016 0.115516 0.204212
-0.064944 0.200041 0.251524
0.113831 -0.161722 0.134647
-0.032365 -0.101934 0.118448
-0.123565 0.117475 0.196426
-0.063256 0.203173 0.246861
0.118438 -0.164158 0.129614
-0.033431 -0.108490 0.086992
-0.830869 -0.169945 -0.284577
-0.121072 0.119283 0.191468
-0.068034 0.215257 0.239900
0.076854 -0.165764 0.101945
-0.032376 -0.108396 0.085204
-0.823551 -0.160678 -0.283552
-0.122761 0.133945 0.170148
-0.071535 0.206826 0.241822
-0.195042 0.268422 0.201937
0.015669 -0.170776 0.054272
-0.030951 -0.101321 0.080147
-0.809915 -0.144437 -0.289737
-0.121491 0.136758 0.164004
-0.066437 0.213072 0.238697
-0.192961 0.270583 0.195870
-0.025365 -0.176603 0.064632
-0.036897 -0.101422 0.065434
-0.786530 -0.136443 -0.291984
-0.112520 0.139593 0.161610
-0.114127 0.224595 0.203501
-0.182595 0.275101 0.194983
-0.405857 -0.338694 -0.257866
-0.039620 -0.166071 0.012531
-0.032969 -0.095573 0.064423
-0.760960 -0.131915 -0.290966
-0.118222 0.144547 0.139510
-0.131816 0.241814 0.195664
-0.176881 0.281959 0.188410
-0.382016 -0.338670 -0.254553
-0.042450 -0.166874 -0.028604
-0.033905 -0.099279 0.048639
-0.742732 -0.125431 -0.291139
-0.823071 -0.037629 -0.302501
-0.118892 0.151699 0.135615
-0.146358 0.255335 0.164677
-0.165444 0.288746 0.187111
-0.375079 -0.340677 -0.254616
-0.047486 -0.160136 -0.044784
-0.027914 -0.091867 0.027067
-0.719362 -0.111654 -0.286874
-0.814896 -0.023193 -0.301465
-0.107321 0.149078 0.131088
-0.131341 0.257849 0.163336
-0.153374 0.298837 0.169889
-0.363352 -0.335863 -0.254449
-0.048581 -0.158393 -0.050196
-0.026486 -0.088401 0.015645
-0.698840 -0.107545 -0.288136
-0.803495 -0.026808 -0.301435
-0.082743 0.158797 0.124265
-0.124222 0.255473 0.157850
-0.143869 0.304225 0.171204
-0.355562 -0.331752 -0.256199
-0.048721 -0.150498 -0.062814
-0.018848 -0.086834 -0.009039
-0.681834 -0.101794 -0.286209
-0.770891 -0.009508 -0.291011
-0.075080 0.165166 0.134906
-0.138549 0.256441 0.161426
-0.139703 0.305418 0.170171
-0.330110 -0.323748 -0.259624
-0.039325 -0.145717 -0.068667
-0.020550 -0.094587 -0.022709
-0.653106 -0.087143 -0.288477
-0.742434 -0.007259 -0.293526
-0.080061 0.166464 0.121561
-0.140832 0.258687 0.148224
-0.132940 0.312149 0.163667
-0.322633 -0.317037 -0.262068
-0.015656 -0.145376 -0.048998
-0.355844 -0.120628 -0.269751
-0.630800 -0.083194 -0.286411
-0.701792 0.000640 -0.305842
-0.073055 0.173248 0.116407
-0.125459 0.255955 0.151262
-0.118721 0.318744 0.158935
-0.312476 -0.303926 -0.269364
-0.013733 -0.144522 -0.051163
-0.513180 -0.163549 -0.288698
-0.609388 -0.075312 -0.282567
-0.186294 0.120467 -0.052218
-0.075851 0.181894 0.101448
-0.129006 0.261101 0.133466
-0.773898 0.269229 -0.295196
-0.155027 -0.348592 -0.269808
-0.252936 -0.308069 -0.262011
-0.012494 -0.143792 -0.053633
-0.478166 -0.162398 -0.291196
-0.591458 -0.066143 -0.278928
-0.155783 0.086706 0.007466
-0.090571 0.184006 0.089266
-0.132939 0.267839 0.117455
-0.145389 -0.347445 -0.270286
-0.234640 -0.289291 -0.257517
-0.014451 -0.137107 -0.067105
-0.461603 -0.149086 -0.291091
-0.579051 -0.055596 -0.282851
-0.148639 0.092236 0.000488
-0.094897 0.188215 0.084145
-0.138744 0.271935 0.106488
-0.134158 -0.345517 -0.269039
-0.217233 -0.281484 -0.258919
-0.010189 -0.134884 -0.069079
-0.446896 -0.141847 -0.290888
-0.556500 -0.053925 -0.289611
-0.143345 0.098252 -0.010659
-0.092825 0.194748 0.074902
-0.131715 0.277574 0.088411
-0.122428 -0.343941 -0.264304
-0.207013 -0.274945 -0.260896
-0.007598 -0.132711 -0.068180
-0.420150 -0.137576 -0.292578
-0.529889 -0.052425 -0.289542
-0.138533 0.101353 -0.012619
-0.087819 0.199419 0.060660
-0.129662 0.284004 0.067622
-0.084641 -0.339905 -0.267511
-0.178758 -0.273119 -0.265619
-0.006085 -0.130977 -0.077678
-0.395946 -0.131066 -0.289059
-0.511281 -0.048958 -0.289014
-0.134522 0.104986 -0.018725
-0.084806 0.202338 0.051337
-0.138549 0.280094 0.067961
-0.081867 -0.340528 -0.271471
-0.162260 -0.261241 -0.270568
0.012808 -0.125196 -0.077670
-0.377733 -0.124835 -0.286191
-0.487828 -0.039400 -0.289384
-0.124504 0.110702 -0.019253
-0.082477 0.205814 0.043982
-0.129218 0.285014 0.062489
-0.062044 -0.334502 -0.267284
-0.150978 -0.253844 -0.272908
0.019360 -0.123540 -0.078685
-0.358041 -0.112159 -0.276259
-0.473566 -0.033417 -0.288851
-0.111263 0.116507 -0.023888
-0.065119 0.207894 0.029180
-0.078868 0.284400 0.073134
-0.023885 -0.314014 -0.255644
-0.130892 -0.245120 -0.277054
0.009988 -0.119721 -0.111374
-0.340469 -0.101582 -0.275247
-0.449865 -0.027196 -0.288975
-0.102484 0.121103 -0.036847
-0.066135 0.212344 0.020115
-0.097733 0.295290 0.044181
-0.009100 -0.302627 -0.256111
-0.094778 -0.233606 -0.273765
0.008797 -0.119121 -0.124194
-0.323444 -0.098740 -0.271027
-0.428704 -0.023943 -0.290663
-0.100217 0.123093 -0.038504
-0.070838 0.207513 0.020279
-0.102721 0.297974 0.028747
0.051228 -0.357165 -0.277999
-0.015246 -0.303127 -0.257303
-0.076371 -0.225988 -0.270321
0.009323 -0.119276 -0.130579
-0.300120 -0.087855 -0.272470
-0.379892 -0.013941 -0.279435
-0.101388 0.125138 -0.049247
-0.071392 0.211705 0.002775
-0.178393 0.230043 -0.035024
0.074492 -0.349946 -0.273573
-0.009000 -0.297509 -0.257868
-0.094107 -0.229591 -0.275923
0.005103 -0.109093 -0.146269
-0.292011 -0.075358 -0.281940
-0.360639 -0.003570 -0.272864
-0.097750 0.126248 -0.054215
-0.088009 0.218319 -0.009336
-0.703974 0.254388 -0.296775
-0.803846 0.348576 -0.311546
0.090823 -0.345014 -0.271043
0.007875 -0.290907 -0.259361
-0.065220 -0.215189 -0.268104
-0.070887 -0.119488 -0.241420
-0.269345 -0.073343 -0.284259
-0.341149 0.010848 -0.270206
-0.092814 0.127276 -0.058476
-0.090374 0.222474 -0.017987
-0.698719 0.258167 -0.297132
-0.797945 0.347291 -0.309083
0.101164 -0.341370 -0.268282
0.015686 -0.288754 -0.260777
-0.065233 -0.215180 -0.268375
-0.081625 -0.134022 -0.251041
-0.250007 -0.069421 -0.282574
-0.336312 0.013779 -0.268851
-0.083436 0.131950 -0.077046
-0.091351 0.226631 -0.024318
-0.673486 0.266026 -0.296774
-0.792037 0.352613 -0.307484
0.125514 -0.344622 -0.265899
0.039875 -0.279072 -0.268845
-0.058598 -0.211371 -0.273654
-0.094616 -0.123958 -0.262472
-0.231222 -0.065300 -0.280640
-0.304536 0.020048 -0.270413
-0.077985 0.135064 -0.085804
-0.128381 0.230925 -0.054221
-0.649639 0.273585 -0.295771
-0.747708 0.361110 -0.302966
0.133067 -0.345131 -0.268647
0.057790 -0.268044 -0.271084
-0.028501 -0.195001 -0.266910
-0.092752 -0.121755 -0.262500
-0.206115 -0.061401 -0.271528
-0.291884 0.028482 -0.269197
-0.077164 0.139150 -0.094254
-0.120811 0.233517 -0.060582
-0.624268 0.276428 -0.296611
-0.718882 0.375816 -0.300541
-0.787688 0.450100 -0.307725
0.144775 -0.336838 -0.265441
0.065612 -0.263169 -0.276094
-0.003825 -0.188457 -0.259865
-0.080919 -0.113124 -0.265889
-0.185478 -0.048143 -0.266162
-0.263580 0.052714 -0.269650
-0.071201 0.142918 -0.089405
-0.120333 0.225763 -0.078829
-0.598355 0.282028 -0.299467
-0.699249 0.384481 -0.299871
-0.779254 0.453204 -0.307696
0.150421 -0.334424 -0.266832
0.084191 -0.256316 -0.276070
0.017295 -0.185041 -0.257543
-0.071724 -0.107522 -0.267575
-0.164234 -0.038514 -0.265579
-0.234573 0.059709 -0.270968
-0.075159 0.151273 -0.110157
-0.117285 0.234240 -0.099897
-0.572155 0.287250 -0.297951
-0.674353 0.390736 -0.299852
-0.773708 0.457132 -0.306783
0.177783 -0.320718 -0.268631
0.100085 -0.252223 -0.278319
0.029750 -0.180146 -0.259788
-0.052932 -0.101426 -0.265881
-0.154084 -0.033103 -0.264058
-0.223484 0.057725 -0.271366
-0.078708 0.155353 -0.116342
-0.119878 0.235010 -0.128574
-0.558470 0.293788 -0.298230
-0.656910 0.392860 -0.300364
-0.770881 0.459857 -0.306937
0.268845 -0.356682 -0.273397
0.199198 -0.320290 -0.272796
0.114771 -0.244754 -0.276686
0.042021 -0.167995 -0.257731
-0.036595 -0.094918 -0.256779
-0.147474 -0.026984 -0.266379
-0.209196 0.061442 -0.271116
-0.055537 0.153010 -0.154974
-0.115382 0.241024 -0.137819
-0.538210 0.306040 -0.297175
-0.632749 0.404988 -0.299499
0.283841 -0.352784 -0.273587
0.214534 -0.313210 -0.273541
0.129404 -0.239740 -0.275603
0.056903 -0.165219 -0.258892
-0.022692 -0.084953 -0.258401
-0.129383 -0.020974 -0.268495
-0.190608 0.069366 -0.271545
-0.060422 0.153084 -0.165604
-0.109757 0.244766 -0.150301
-0.516120 0.307669 -0.293400
-0.610260 0.404423 -0.297587
0.300146 -0.350625 -0.271771
0.233928 -0.299002 -0.277517
0.150213 -0.228065 -0.273658
0.066894 -0.149935 -0.262545
-0.003295 -0.081442 -0.247107
-0.104838 -0.011375 -0.273723
-0.170405 0.080819 -0.268818
-0.067224 0.156918 -0.163477
-0.125056 0.240238 -0.147544
-0.482696 0.316418 -0.290943
-0.581187 0.403258 -0.294013
0.306400 -0.350567 -0.272491
0.246611 -0.290464 -0.279258
0.161367 -0.223553 -0.271438
0.080587 -0.148858 -0.264737
0.020146 -0.070637 -0.244054
-0.090332 -0.004224 -0.273034
-0.159280 0.082787 -0.269710
-0.064836 0.168503 -0.166829
-0.148851 0.249065 -0.174529
-0.464198 0.325652 -0.290530
-0.558858 0.410304 -0.292663
0.326104 -0.346026 -0.274322
0.261640 -0.284083 -0.278007
0.180309 -0.213798 -0.272858
0.109652 -0.137640 -0.282048
0.034160 -0.069462 -0.252705
-0.074520 0.002622 -0.275090
-0.130089 0.084866 -0.267758
-0.108189 0.176515 -0.201625
-0.150409 0.250676 -0.188044
-0.443355 0.331491 -0.290129
-0.546851 0.415908 -0.292003
0.328090 -0.345039 -0.272848
0.273957 -0.280646 -0.278979
0.192255 -0.208428 -0.273580
0.128048 -0.137756 -0.284975
0.046838 -0.063592 -0.253701
-0.052576 0.007051 -0.277400
-0.109725 0.089524 -0.265460
-0.128116 0.184795 -0.210190
-0.164654 0.258597 -0.215055
-0.416839 0.324966 -0.286861
-0.511440 0.417332 -0.288887
0.360368 -0.340406 -0.270740
0.282059 -0.274085 -0.281051
0.208311 -0.200537 -0.272935
0.142296 -0.127617 -0.281329
0.067775 -0.046982 -0.274961
-0.036256 0.014015 -0.276032
-0.094616 0.090615 -0.268488
-0.167491 0.178019 -0.273997
-0.233173 0.247970 -0.264071
-0.393976 0.330159 -0.287039
-0.479378 0.425936 -0.288522
0.386266 -0.329555 -0.269992
0.309951 -0.260385 -0.275759
0.224351 -0.192371 -0.274617
0.155052 -0.123026 -0.281356
0.080418 -0.053663 -0.274623
-0.019502 0.022790 -0.277394
-0.076243 0.100606 -0.269512
-0.181332 0.176832 -0.290179
-0.248702 0.250186 -0.271154
-0.375631 0.334442 -0.286020
-0.456468 0.428774 -0.288415
0.403008 -0.326182 -0.270403
0.319990 -0.250629 -0.275387
0.230802 -0.189556 -0.275970
0.172112 -0.117498 -0.280894
0.097292 -0.037384 -0.277979
-0.002352 0.024853 -0.277241
-0.064717 0.102999 -0.271401
-0.147894 0.178714 -0.275116
-0.244500 0.254163 -0.273039
-0.361337 0.338529 -0.286619
-0.441982 0.427566 -0.288444
0.397341 -0.325148 -0.270045
0.340048 -0.242905 -0.274393
0.271390 -0.173771 -0.272448
0.185077 -0.113871 -0.281558
0.115984 -0.037749 -0.276004
0.013140 0.036016 -0.275457
-0.055257 0.111508 -0.272300
-0.097135 0.200339 -0.255714
-0.223904 0.263595 -0.271377
-0.337388 0.346823 -0.286379
-0.413523 0.432218 -0.287227
0.492459 -0.364138 -0.276941
0.399193 -0.321588 -0.269413
0.354745 -0.237356 -0.274441
0.280792 -0.168179 -0.270908
0.203763 -0.105031 -0.279919
0.121067 -0.031049 -0.279380
0.033326 0.044260 -0.274161
-0.034116 0.117201 -0.273482
-0.104092 0.201612 -0.258164
-0.195587 0.270303 -0.265251
-0.318375 0.355786 -0.286226
-0.393005 0.440025 -0.289218
0.506778 -0.362324 -0.272610
0.416794 -0.314273 -0.273401
0.344294 -0.237984 -0.276735
0.298458 -0.162277 -0.270628
0.220834 -0.096131 -0.272885
0.129036 -0.029168 -0.279726
0.040374 0.046707 -0.273925
-0.014391 0.126508 -0.265591
-0.095823 0.200439 -0.262078
-0.178525 0.275033 -0.268347
-0.268153 0.361276 -0.284036
-0.361366 0.442273 -0.289152
0.517541 -0.361068 -0.267655
0.435931 -0.306064 -0.277900
0.348785 -0.234059 -0.277646
0.285705 -0.166299 -0.271736
0.237440 -0.090629 -0.268830
0.184808 -0.012153 -0.271952
0.073095 0.058329 -0.273896
0.013899 0.136493 -0.263201
-0.073726 0.212544 -0.264289
-0.151153 0.285903 -0.267351
-0.270704 0.364043 -0.284962
-0.361781 0.442965 -0.289476
0.526625 -0.362278 -0.268419
0.455572 -0.299204 -0.276551
0.382998 -0.228317 -0.279154
0.303283 -0.156933 -0.272751
0.247556 -0.086091 -0.267062
0.186994 -0.005539 -0.269836
0.090514 0.061591 -0.273443
0.023635 0.139748 -0.262754
-0.053212 0.217959 -0.272690
-0.140420 0.290525 -0.272807
-0.266829 0.370635 -0.286214
0.533152 -0.360759 -0.269563
0.472899 -0.293442 -0.274367
0.402500 -0.220193 -0.282299
0.319691 -0.147659 -0.271945
0.247927 -0.083988 -0.267713
0.194795 -0.003656 -0.271121
0.109297 0.067685 -0.271040
0.044001 0.144355 -0.268560
-0.039416 0.225144 -0.275635
-0.129172 0.294374 -0.274262
-0.242763 0.376935 -0.286839
0.537761 -0.357086 -0.270292
0.484318 -0.284509 -0.272303
0.419520 -0.208149 -0.279613
0.335895 -0.138959 -0.273030
0.260584 -0.079159 -0.266325
0.180703 -0.005484 -0.271847
0.132860 0.074817 -0.274319
0.049603 0.146525 -0.270080
-0.028538 0.229509 -0.279141
-0.130074 0.296649 -0.276893
-0.217797 0.377400 -0.286320
0.508885 -0.274119 -0.269669
0.435811 -0.202848 -0.277017
0.359812 -0.131172 -0.273226
0.278558 -0.070664 -0.260077
0.200940 0.001103 -0.272679
0.122065 0.078001 -0.274229
0.076371 0.147833 -0.271227
-0.024572 0.234726 -0.281944
-0.108670 0.310988 -0.286165
-0.201596 0.385195 -0.289338
0.513537 -0.267578 -0.272517
0.460066 -0.195957 -0.273007
0.382922 -0.128215 -0.270536
0.313189 -0.060144 -0.257145
0.223683 0.008254 -0.273375
0.140087 0.085257 -0.276519
0.075539 0.150695 -0.272497
-0.008617 0.238570 -0.284273
-0.081785 0.313702 -0.281973
-0.170221 0.394593 -0.288334
0.522039 -0.263573 -0.273838
0.474979 -0.189461 -0.272183
0.394194 -0.118851 -0.265272
0.330099 -0.056855 -0.257067
0.250670 0.018841 -0.273650
0.160495 0.083169 -0.281801
0.092499 0.165920 -0.271254
0.020169 0.248838 -0.285529
-0.060485 0.322854 -0.277258
-0.146912 0.405805 -0.281994
0.521650 -0.258532 -0.274913
0.483863 -0.185818 -0.271557
0.408076 -0.113497 -0.264021
0.343583 -0.047488 -0.259727
0.266095 0.026422 -0.274412
0.190535 0.095327 -0.279949
0.122504 0.170669 -0.263565
0.034728 0.243438 -0.285684
-0.027483 0.330632 -0.273674
-0.124291 0.403460 -0.279518
0.545866 -0.253421 -0.272764
0.505792 -0.182053 -0.269391
0.432049 -0.108538 -0.256229
0.358744 -0.037890 -0.258982
0.296806 0.039714 -0.273696
0.199372 0.099317 -0.280077
0.147790 0.175150 -0.266955
0.069579 0.254555 -0.273894
-0.013096 0.340208 -0.273012
-0.098312 0.407580 -0.279336
0.511870 -0.177759 -0.269022
0.451266 -0.100370 -0.253432
0.378572 -0.036433 -0.260194
0.311968 0.041399 -0.271336
0.221607 0.109136 -0.275481
0.163703 0.182623 -0.266885
0.074636 0.258539 -0.273680
0.001540 0.338526 -0.272123
-0.081746 0.411230 -0.279615
0.531505 -0.174590 -0.263326
0.459227 -0.095968 -0.250608
0.386936 -0.031790 -0.260075
0.321519 0.043906 -0.273257
0.239936 0.114331 -0.274297
0.179344 0.187742 -0.270602
0.097445 0.264619 -0.270954
0.032155 0.347231 -0.272900
-0.061758 0.412597 -0.280654
0.469721 -0.090846 -0.250419
0.402103 -0.025274 -0.258254
0.348198 0.056022 -0.271535
0.256389 0.117795 -0.273093
0.193842 0.194191 -0.277086
0.118846 0.266475 -0.273539
0.050096 0.350881 -0.271263
-0.048572 0.415594 -0.280984
0.514053 -0.076664 -0.251541
0.424260 -0.012113 -0.257845
0.366932 0.044002 -0.267570
0.274342 0.123063 -0.273179
0.209299 0.191765 -0.281609
0.137055 0.275579 -0.270306
0.067548 0.358543 -0.272660
-0.016999 0.408495 -0.277806
0.527997 -0.083872 -0.252718
0.455263 -0.011934 -0.254702
0.378956 0.046376 -0.266324
0.290730 0.125677 -0.271941
0.225272 0.194664 -0.283026
0.166148 0.274524 -0.263932
0.085487 0.362109 -0.273786
-0.002777 0.402016 -0.276884
0.520221 -0.079818 -0.252047
0.481538 0.001288 -0.254026
0.406011 0.059735 -0.264236
0.310971 0.135142 -0.271974
0.247472 0.205915 -0.279213
0.188819 0.277278 -0.260318
0.105783 0.361875 -0.274715
0.528184 -0.074613 -0.252089
0.484952 0.001196 -0.253929
0.420120 0.068152 -0.260464
0.333620 0.131174 -0.270032
0.279907 0.201957 -0.272947
0.200316 0.293560 -0.263383
0.128141 0.365152 -0.271396
0.537666 -0.074094 -0.253388
0.485623 0.003178 -0.254216
0.423062 0.072518 -0.261504
0.355607 0.139081 -0.268741
0.289371 0.210814 -0.268187
0.226475 0.291954 -0.265819
0.159801 0.351064 -0.271765
0.511756 0.010360 -0.251859
0.437846 0.074570 -0.257696
0.363975 0.143621 -0.269118
0.312510 0.213513 -0.262550
0.243566 0.290403 -0.264553
0.190435 0.356516 -0.266563
0.529259 0.020102 -0.252231
0.470819 0.081246 -0.256275
0.379662 0.153851 -0.267856
0.339562 0.214774 -0.259671
0.271179 0.289899 -0.265248
0.190960 0.374886 -0.266161
0.540687 0.020327 -0.249254
0.471783 0.085301 -0.260314
0.400725 0.159873 -0.268426
0.350610 0.217593 -0.258975
0.285814 0.291087 -0.262604
0.207711 0.379112 -0.265985
0.544430 0.024551 -0.249748
0.486214 0.092489 -0.257827
0.421278 0.172651 -0.264775
0.370043 0.228194 -0.256559
0.301140 0.299933 -0.263103
0.223126 0.383751 -0.262703
0.525380 0.095934 -0.250294
0.431545 0.159380 -0.264929
0.385905 0.232944 -0.254846
0.316279 0.304467 -0.261953
0.238019 0.390979 -0.263046
0.532169 0.101540 -0.249188
0.455523 0.177119 -0.259133
0.405093 0.235382 -0.253931
0.337421 0.306318 -0.257928
0.261693 0.393453 -0.262295
0.549563 0.105377 -0.247776
0.467127 0.180907 -0.256953
0.418324 0.246259 -0.254232
0.349117 0.310252 -0.257320
0.271938 0.391680 -0.261381
0.548428 0.107509 -0.247908
0.491220 0.165440 -0.254985
0.426860 0.248839 -0.253794
0.368385 0.318590 -0.255076
0.298357 0.391143 -0.259946
0.550701 0.112773 -0.247769
0.494641 0.173861 -0.254831
0.453439 0.248718 -0.252975
0.385306 0.324041 -0.255015
0.312260 0.394895 -0.258836
0.512913 0.185087 -0.250908
0.465207 0.257518 -0.252627
0.399188 0.325930 -0.253540
0.330581 0.398341 -0.257871
0.530435 0.191204 -0.249251
0.473753 0.258525 -0.252061
0.416225 0.333737 -0.250613
0.538485 0.194956 -0.249885
0.486830 0.261892 -0.251341
0.429377 0.339499 -0.249516
0.541570 0.200292 -0.249705
0.518289 0.262791 -0.248754
0.453425 0.348068 -0.251193
0.549898 0.205309 -0.249540
0.512701 0.278971 -0.245863
0.466192 0.347680 -0.250359
0.540796 0.281383 -0.242051
0.471615 0.364753 -0.250222
0.546133 0.285169 -0.242301
0.497859 0.358632 -0.248564
0.551254 0.285568 -0.243611
0.511460 0.363067 -0.247245
0.526426 0.367618 -0.246222
0.537861 0.371333 -0.245389
0.543436 0.370425 -0.245024
0.537947 0.379113 -0.244585
0.012626 -0.077423 0.897253
0.003890 -0.084355 0.895882
0.006247 -0.079982 0.894773
-0.050402 -0.170904 0.812917
0.014279 -0.081805 0.884976
-0.060412 -0.162649 0.828836
0.016908 -0.078941 0.882924
-0.051224 -0.156991 0.824522
0.038557 -0.075410 0.871584
-0.058241 -0.153724 0.827436
0.039143 -0.070840 0.868110
-0.039042 -0.144550 0.817612
0.041285 -0.068839 0.865368
-0.019663 -0.160235 0.786913
0.040569 -0.068298 0.863331
0.075608 -0.036074 0.875053
0.005566 -0.210940 0.742256
-0.009049 -0.151791 0.777678
0.042532 -0.067083 0.846518
0.070091 -0.036772 0.871891
-0.025237 -0.219258 0.738894
-0.004456 -0.149888 0.778593
0.043518 -0.064075 0.843760
-0.014983 -0.217151 0.736760
-0.010579 -0.147700 0.775646
0.034707 -0.059965 0.837923
-0.017072 -0.217251 0.728998
-0.006626 -0.144169 0.763976
0.050851 -0.054582 0.836036
-0.002542 -0.209321 0.719440
-0.000110 -0.139554 0.756893
0.056679 -0.054696 0.825433
0.019153 -0.196928 0.716384
0.002974 -0.131174 0.751587
0.053955 -0.050979 0.818896
0.035591 -0.187301 0.718228
0.000975 -0.122729 0.755959
0.050925 -0.049333 0.799822
0.044350 -0.183492 0.712778
0.006329 -0.117286 0.742407
0.055152 -0.047167 0.799144
-0.005882 -0.250969 0.622700
0.048929 -0.179700 0.710826
0.023423 -0.120969 0.728544
0.040388 -0.041751 0.789563
-0.009864 -0.248984 0.613694
0.046992 -0.174161 0.703697
0.035150 -0.120608 0.727192
0.022283 -0.037087 0.780956
-0.002915 -0.247022 0.614117
0.042093 -0.177174 0.692309
0.044706 -0.099936 0.722802
0.046382 -0.036754 0.779150
-0.002390 -0.246449 0.612316
0.042553 -0.173999 0.689305
0.061726 -0.100900 0.721651
0.049231 -0.036960 0.771496
-0.001891 -0.244971 0.610433
0.025326 -0.177245 0.649777
0.068569 -0.086412 0.718874
0.038557 -0.025396 0.738275
-0.005997 -0.243654 0.605369
0.025290 -0.173415 0.643853
0.062540 -0.094755 0.710349
0.041707 -0.020543 0.730977
-0.017020 -0.243637 0.594150
0.030703 -0.166179 0.644199
0.026871 -0.092873 0.690067
-0.006431 -0.020749 0.709461
-0.018812 -0.240706 0.587395
0.021716 -0.162576 0.626135
-0.007737 -0.085616 0.688260
-0.016587 -0.011477 0.705524
-0.010841 -0.241099 0.578790
0.029361 -0.151421 0.622391
0.016362 -0.074276 0.674312
-0.014926 -0.012085 0.695455
-0.018342 -0.234758 0.566774
0.047743 -0.142612 0.638480
-0.003916 -0.076745 0.676055
-0.005449 -0.007140 0.689034
-0.014491 -0.231471 0.561404
0.027808 -0.143185 0.606862
0.003410 -0.081325 0.642878
0.000325 -0.010568 0.682297
-0.005295 -0.218532 0.553377
0.011216 -0.144640 0.593400
0.013208 -0.075167 0.637939
0.000859 -0.004062 0.673555
-0.006449 -0.226662 0.526649
0.029322 -0.133820 0.582001
0.014410 -0.070340 0.635354
0.002753 -0.000179 0.670181
-0.002236 -0.211156 0.529282
0.042802 -0.121726 0.598137
0.015396 -0.067626 0.616357
-0.025080 0.008830 0.644891
0.012351 -0.199469 0.525582
0.040065 -0.122100 0.584666
0.024412 -0.065224 0.608835
-0.058441 0.011950 0.628184
0.025486 -0.204066 0.512482
0.039545 -0.121492 0.577576
0.025671 -0.055677 0.611550
-0.050810 0.016619 0.619361
0.038015 -0.194294 0.517722
0.032826 -0.131778 0.565291
0.027429 -0.050852 0.603648
-0.017209 0.019417 0.629276
0.043550 -0.188850 0.514716
0.032397 -0.120153 0.549472
0.028769 -0.044141 0.597029
-0.039779 0.024885 0.609883
0.049054 -0.185451 0.506842
0.035076 -0.124767 0.537465
0.030399 -0.052929 0.566831
-0.073026 0.030780 0.589704
0.047977 -0.178424 0.495836
0.042148 -0.112897 0.537797
0.006709 -0.049773 0.546422
-0.074886 0.035319 0.578531
0.056808 -0.178455 0.496016
0.035166 -0.110361 0.513070
0.013244 -0.052834 0.536156
-0.050918 0.036820 0.572848
0.055444 -0.171781 0.485352
0.031011 -0.108632 0.505730
-0.001187 -0.043419 0.528039
-0.045288 0.037892 0.554710
0.057730 -0.169119 0.483677
0.040439 -0.098632 0.511427
-0.016009 -0.040471 0.518565
-0.047026 0.039209 0.546033
0.068300 -0.166844 0.479997
0.026668 -0.101420 0.497699
-0.016606 -0.037269 0.509964
-0.053237 0.046595 0.531848
0.071877 -0.160671 0.474959
0.026864 -0.104551 0.487335
0.001910 -0.037386 0.497602
-0.054662 0.049251 0.528926
0.083225 -0.158115 0.466016
0.023910 -0.102403 0.478398
-0.030265 -0.024838 0.489605
-0.062749 0.053175 0.520269
-0.493515 -0.310939 0.092883
0.090651 -0.154077 0.458858
0.026182 -0.096042 0.463855
-0.042565 -0.029474 0.471192
-0.062832 0.054073 0.513474
-0.636815 -0.317397 0.077934
0.096577 -0.149194 0.457889
0.027680 -0.090144 0.452746
-0.038720 -0.020252 0.466362
-0.059537 0.055134 0.500750
0.093405 -0.147462 0.450996
0.030202 -0.085054 0.438664
-0.024158 -0.028984 0.455815
-0.062133 0.057044 0.497027
0.097556 -0.141671 0.445558
0.034641 -0.086377 0.447005
-0.048315 -0.009676 0.440515
-0.065694 0.055983 0.465561
0.104852 -0.138585 0.438132
0.039676 -0.068127 0.447763
-0.050079 -0.002303 0.433733
-0.061620 0.060324 0.468446
-0.774982 -0.299625 -0.071671
0.101737 -0.131474 0.423935
0.041278 -0.062313 0.433873
-0.033609 -0.010117 0.432957
-0.078546 0.058407 0.447979
-0.079181 -0.184297 0.204297
0.102965 -0.130192 0.422209
0.042159 -0.073517 0.420745
-0.031981 -0.006604 0.438276
-0.079417 0.061034 0.437466
0.014256 -0.192962 0.330266
0.101575 -0.125519 0.407558
0.038312 -0.061608 0.414526
-0.022064 -0.008608 0.428778
-0.082307 0.064742 0.429253
0.018472 -0.189486 0.324828
0.092418 -0.124021 0.395840
0.043767 -0.050257 0.408789
-0.030859 0.005215 0.417904
-0.077333 0.069305 0.425676
0.025514 -0.191706 0.329774
0.068748 -0.131231 0.369273
0.034592 -0.050588 0.392093
-0.043134 0.017639 0.394785
-0.080078 0.074275 0.408069
0.058966 -0.187259 0.328134
0.023364 -0.145268 0.333247
0.040402 -0.042626 0.390027
-0.052136 0.019535 0.379571
-0.077088 0.077432 0.401680
0.086870 -0.183077 0.323974
0.008972 -0.143416 0.314772
0.038798 -0.044466 0.381640
-0.036492 0.024465 0.365693
-0.074430 0.080082 0.396336
0.093535 -0.172304 0.322923
0.018848 -0.131764 0.314164
0.034623 -0.039462 0.362303
-0.001385 0.012743 0.399980
-0.079443 0.085568 0.385177
0.095948 -0.168561 0.320229
0.020199 -0.126637 0.310001
0.030438 -0.028278 0.352201
-0.075839 0.087388 0.382405
0.098278 -0.160474 0.311007
0.001343 -0.121237 0.291911
0.001415 -0.036645 0.325249
-0.073499 0.089153 0.381017
0.124603 -0.160862 0.283545
-0.014533 -0.115390 0.271064
0.000979 -0.032954 0.319274
-0.075338 0.088066 0.370508
0.125459 -0.156879 0.271497
-0.014376 -0.110352 0.255674
0.000815 -0.032944 0.309484
-0.123004 0.112569 0.321002
0.127492 -0.153313 0.270627
-0.018712 -0.104117 0.243914
-0.001446 -0.032238 0.302027
-0.023608 0.103699 0.364143
0.128164 -0.149788 0.268008
-0.013915 -0.102557 0.230442
-0.014707 -0.025218 0.293088
0.121436 -0.150688 0.244452
-0.010541 -0.096578 0.226022
-0.021547 -0.024995 0.284020
0.123136 -0.149634 0.244518
-0.008023 -0.088663 0.220874
-0.009142 -0.023797 0.274593
-0.814313 -0.324875 -0.266030
0.128071 -0.140551 0.241833
-0.002760 -0.086283 0.225775
-0.801346 -0.322681 -0.269250
0.126842 -0.137750 0.234789
0.002373 -0.080516 0.231576
-0.459784 0.065163 0.056793
-0.769808 -0.318259 -0.276610
0.127347 -0.136799 0.231154
0.001156 -0.075973 0.222930
-0.030999 0.054460 0.292141
-0.736668 -0.319312 -0.275190
0.130400 -0.130974 0.226649
0.002682 -0.072634 0.212912
-0.041414 0.088614 0.254097
-0.720103 -0.313520 -0.274560
0.130329 -0.131595 0.220187
0.005668 -0.066229 0.202631
-0.040413 0.093037 0.241521
-0.549142 0.046675 0.008329
-0.689342 -0.313823 -0.273617
0.138098 -0.130864 0.200373
0.006408 -0.064843 0.185932
-0.039137 0.092972 0.224535
-0.192983 0.179530 0.244537
-0.670500 -0.309520 -0.276687
0.138123 -0.126649 0.197618
0.006101 -0.064088 0.176657
-0.038030 0.100325 0.209017
-0.133900 0.152102 0.252246
-0.658461 -0.305499 -0.277370
0.143714 -0.133591 0.183694
0.005269 -0.066427 0.166730
-0.045330 0.105570 0.209011
-0.068119 0.189004 0.253398
-0.645114 -0.288445 -0.282853
0.148821 -0.138158 0.179448
0.006780 -0.068590 0.157498
-0.052867 0.118130 0.204348
-0.055030 0.192112 0.245738
-0.608763 -0.288906 -0.283048
0.141638 -0.126277 0.177792
0.004770 -0.067601 0.143707
-0.052382 0.121723 0.206091
-0.049603 0.193533 0.239499
-0.435010 -0.263719 -0.279187
0.154407 -0.140003 0.173964
-0.153471 0.026171 0.010985
-0.051776 0.122466 0.199020
-0.053653 0.201984 0.229593
-0.441272 -0.320971 -0.282219
0.102527 -0.164905 0.093427
0.138803 -0.134290 0.159708
-0.806571 -0.108517 -0.295183
-0.082224 0.138552 0.184019
-0.030893 0.191315 0.237142
-0.187616 0.258628 0.188368
-0.432595 -0.327059 -0.276343
0.110298 -0.161573 0.091719
0.135690 -0.136185 0.141420
-0.781203 -0.105137 -0.296530
-0.074137 0.143751 0.175794
-0.026013 0.195238 0.219007
-0.185655 0.260107 0.183307
-0.417523 -0.331664 -0.266569
0.103451 -0.158961 0.080331
0.056220 -0.150320 0.101237
-0.757834 -0.104237 -0.296615
-0.078811 0.143848 0.141063
-0.022478 0.197362 0.216361
-0.181643 0.261833 0.183199
-0.401598 -0.336161 -0.259011
0.118833 -0.154287 0.064518
-0.031402 -0.112628 0.059577
-0.735750 -0.099818 -0.296294
-0.819868 0.007839 -0.306487
-0.108431 0.142752 0.131284
-0.053384 0.204885 0.219899
-0.172475 0.269610 0.178940
-0.378642 -0.337855 -0.256681
0.109030 -0.151028 0.045132
-0.027424 -0.105079 0.039742
-0.698583 -0.088784 -0.292066
-0.817910 0.012497 -0.306828
-0.124854 0.155557 0.121251
-0.049344 0.208586 0.209762
-0.163926 0.278922 0.177173
-0.364161 -0.334567 -0.254359
0.100796 -0.150837 0.044657
-0.024805 -0.100390 0.033301
-0.667514 -0.076570 -0.290801
-0.807339 0.006455 -0.303139
-0.081744 0.128756 0.096131
-0.045579 0.211892 0.194292
-0.157843 0.281866 0.171764
-0.355144 -0.331674 -0.255906
0.069800 -0.158241 0.053452
-0.022896 -0.098339 0.024322
-0.635933 -0.081880 -0.289601
-0.783354 0.016010 -0.294834
-0.069030 0.130699 0.092635
-0.048726 0.205773 0.154980
-0.132671 0.279327 0.160637
-0.334635 -0.319424 -0.259499
0.063309 -0.156633 0.035049
-0.013003 -0.096328 -0.011716
-0.619948 -0.068146 -0.284808
-0.759158 0.014128 -0.301154
-0.065379 0.128474 0.084653
-0.074392 0.220341 0.130596
-0.126178 0.292082 0.158131
-0.311799 -0.308257 -0.269387
0.051040 -0.153136 -0.000404
-0.001730 -0.096532 -0.014453
-0.595558 -0.066820 -0.289683
-0.721577 0.030295 -0.301944
-0.057946 0.136974 0.077333
-0.079230 0.228862 0.117040
-0.098376 0.292460 0.156420
-0.289925 -0.299154 -0.265265
0.025297 -0.147013 -0.017081
-0.000380 -0.101803 -0.014996
-0.580700 -0.055249 -0.289452
-0.711594 0.038880 -0.303519
-0.057769 0.139479 0.063471
-0.070224 0.229861 0.108598
-0.094884 0.294828 0.151727
-0.284423 -0.291174 -0.268493
0.010803 -0.144513 -0.041110
-0.003117 -0.104057 -0.021198
-0.570978 -0.046801 -0.290146
-0.695649 0.032970 -0.304732
-0.044403 0.144797 0.075178
-0.062868 0.231430 0.116393
-0.087046 0.296271 0.136832
-0.147587 -0.346156 -0.271655
-0.272557 -0.285651 -0.265785
0.013835 -0.143755 -0.040959
-0.003266 -0.105903 -0.028464
-0.535779 -0.051792 -0.290083
-0.671125 0.038655 -0.303054
-0.046106 0.144389 0.064848
-0.057430 0.236179 0.119819
-0.086986 0.302830 0.134205
-0.147384 -0.345939 -0.272056
-0.229437 -0.281252 -0.259376
0.010732 -0.133137 -0.060588
-0.005271 -0.104090 -0.031460
-0.504525 -0.041982 -0.289600
-0.645460 0.049513 -0.304590
-0.056826 0.155014 0.063914
-0.059308 0.246257 0.115021
-0.105849 0.305611 0.120177
-0.140233 -0.342929 -0.271981
-0.214132 -0.278170 -0.259337
0.020286 -0.128773 -0.072709
-0.003628 -0.102834 -0.037147
-0.492218 -0.039476 -0.289698
-0.637423 0.058026 -0.305893
-0.049604 0.153950 0.048569
-0.058364 0.255932 0.101271
-0.119307 0.303143 0.101429
-0.133682 -0.345093 -0.269326
-0.201048 -0.270504 -0.265302
-0.080042 -0.160913 -0.179573
-0.027042 -0.101476 -0.078995
-0.475080 -0.032172 -0.287725
-0.608995 0.070124 -0.307942
-0.050164 0.177529 0.040604
-0.059250 0.259248 0.090977
-0.123597 0.303371 0.072929
-0.121755 -0.342570 -0.269342
-0.169346 -0.268942 -0.268481
-0.036016 -0.149996 -0.141361
-0.309482 -0.110451 -0.265907
-0.456442 -0.028414 -0.286875
-0.590885 0.064862 -0.311409
-0.049069 0.166782 0.029309
-0.061292 0.256724 0.078002
-0.119735 0.307861 0.053478
-0.095022 -0.338168 -0.274634
-0.136988 -0.259384 -0.272107
-0.084614 -0.157165 -0.196882
-0.326505 -0.103472 -0.268441
-0.426848 -0.024935 -0.287133
-0.436590 0.102518 -0.302954
-0.043509 0.167858 0.014767
-0.060700 0.258019 0.058354
-0.100552 0.320931 0.083325
-0.083699 -0.340577 -0.278970
-0.052686 -0.221140 -0.256288
-0.017984 -0.138842 -0.144408
-0.303977 -0.094211 -0.268987
-0.422180 -0.022668 -0.288069
-0.180859 0.112075 -0.164222
-0.055536 0.199762 0.009958
-0.059189 0.261447 0.047083
-0.077213 0.333718 0.087778
-0.034791 -0.318796 -0.259849
0.002412 -0.209736 -0.229068
0.008826 -0.139151 -0.154554
-0.292476 -0.085005 -0.270696
-0.389747 -0.015489 -0.281154
-0.100791 0.122729 -0.061003
-0.061540 0.185078 -0.010051
-0.059037 0.263838 0.038117
-0.070877 0.335389 0.082757
-0.021097 -0.312950 -0.256607
0.001937 -0.207781 -0.242010
0.011985 -0.136696 -0.155401
-0.280938 -0.079980 -0.279932
-0.380654 -0.013483 -0.279304
-0.089756 0.124378 -0.076173
-0.063960 0.179062 -0.022820
-0.019629 0.259590 0.056214
-0.067565 0.335830 0.075092
-0.002765 -0.307237 -0.259840
0.009388 -0.206017 -0.242441
0.021933 -0.131977 -0.160348
-0.261412 -0.078290 -0.282996
-0.362067 -0.004956 -0.273968
-0.084851 0.130571 -0.081446
-0.064634 0.175441 -0.028952
-0.007972 0.255158 0.051484
-0.062144 0.337312 0.070950
0.001192 -0.305227 -0.259745
0.015363 -0.203313 -0.244945
0.023878 -0.132027 -0.162092
-0.239429 -0.070676 -0.280845
-0.346517 0.011757 -0.269919
-0.084996 0.136447 -0.106511
-0.049543 0.185924 -0.038581
-0.047169 0.268884 0.017871
-0.048812 0.338669 0.073309
0.107309 -0.353706 -0.272658
0.018011 -0.298201 -0.261398
0.022285 -0.213593 -0.249036
0.027895 -0.120003 -0.180351
-0.214592 -0.064525 -0.273839
-0.327120 0.018792 -0.268247
-0.084402 0.141612 -0.108321
-0.087009 0.174617 -0.059294
-0.106491 0.252639 -0.018457
-0.696174 0.392964 -0.299184
0.130782 -0.354098 -0.271578
0.035338 -0.290424 -0.267362
0.027899 -0.211563 -0.249003
0.034654 -0.115013 -0.182339
-0.194696 -0.060734 -0.269416
-0.303506 0.017668 -0.271886
-0.083260 0.144975 -0.111719
-0.096877 0.171785 -0.076223
-0.123438 0.251221 -0.041877
-0.692558 0.391691 -0.299859
0.149393 -0.349456 -0.271502
0.049972 -0.287150 -0.268490
0.033368 -0.199548 -0.246718
0.031454 -0.115990 -0.185790
-0.184992 -0.054104 -0.267830
-0.287475 0.020190 -0.274427
-0.077442 0.148685 -0.112674
-0.102343 0.187499 -0.081182
-0.116983 0.258434 -0.041198
-0.683488 0.400262 -0.301010
0.150672 -0.349626 -0.272340
0.058032 -0.282951 -0.273186
0.031059 -0.188817 -0.250558
0.041696 -0.109908 -0.188255
-0.168159 -0.047379 -0.267579
-0.260935 0.028927 -0.272119
-0.053164 0.124819 -0.117971
-0.112324 0.216046 -0.094966
-0.122040 0.260545 -0.060642
-0.663990 0.405411 -0.300297
0.170011 -0.341061 -0.271322
0.092011 -0.274979 -0.278538
0.040791 -0.182485 -0.253364
0.050034 -0.106254 -0.196717
-0.142196 -0.035440 -0.268535
-0.246708 0.029946 -0.272714
-0.046591 0.144200 -0.151407
-0.124518 0.226389 -0.117126
-0.119343 0.260407 -0.083579
-0.632797 0.411322 -0.298587
0.183100 -0.334987 -0.271769
0.102189 -0.263109 -0.279499
0.051742 -0.180365 -0.254693
0.065281 -0.099832 -0.201732
-0.131350 -0.031689 -0.268977
-0.228102 0.034064 -0.270520
-0.037574 0.140724 -0.161229
-0.115889 0.229235 -0.129938
-0.115842 0.263652 -0.090436
-0.612653 0.405899 -0.298143
0.197391 -0.331718 -0.272513
0.110594 -0.267925 -0.283603
0.051855 -0.177411 -0.257352
0.067163 -0.097559 -0.208082
-0.117802 -0.032771 -0.269882
-0.204966 0.038801 -0.272754
-0.038037 0.144284 -0.162762
-0.108498 0.233107 -0.137642
-0.177766 0.260204 -0.186757
-0.585416 0.410663 -0.293875
0.220133 -0.323880 -0.274430
0.129649 -0.254223 -0.282838
0.082659 -0.175698 -0.267340
0.072993 -0.093914 -0.216124
-0.088372 -0.025390 -0.271104
-0.192848 0.039446 -0.273970
-0.041114 0.143405 -0.169473
-0.093815 0.225220 -0.141656
-0.381618 0.315257 -0.282454
-0.565198 0.415791 -0.292088
0.237595 -0.323908 -0.274503
0.138396 -0.249181 -0.282005
0.089135 -0.178945 -0.270155
0.077683 -0.111922 -0.215725
-0.075587 -0.019311 -0.276066
-0.171266 0.047700 -0.274744
-0.023099 0.148917 -0.177377
-0.100802 0.234727 -0.158620
-0.424835 0.320716 -0.286164
-0.545732 0.417683 -0.291798
0.251402 -0.318129 -0.276194
0.164086 -0.244644 -0.278276
0.101349 -0.170186 -0.274871
0.084989 -0.107896 -0.222332
-0.057349 -0.017086 -0.274490
-0.146949 0.067582 -0.275256
-0.025890 0.155596 -0.172487
-0.102436 0.242067 -0.169765
-0.404642 0.324451 -0.286269
-0.523115 0.422725 -0.290435
0.263087 -0.314786 -0.276927
0.185308 -0.240068 -0.277290
0.114325 -0.166188 -0.280806
0.078235 -0.107780 -0.245073
-0.026206 -0.008636 -0.277479
-0.122419 0.074596 -0.271279
-0.024312 0.157669 -0.173973
-0.112076 0.248986 -0.188745
-0.386606 0.326050 -0.286363
-0.492097 0.424596 -0.289748
0.351999 -0.361527 -0.268485
0.276423 -0.311682 -0.279481
0.199711 -0.243950 -0.280096
0.138735 -0.155804 -0.284094
0.092250 -0.099607 -0.262813
-0.024035 -0.005836 -0.279816
-0.100981 0.080567 -0.271051
-0.012419 0.154523 -0.179241
-0.124812 0.247774 -0.201727
-0.368653 0.333410 -0.286654
-0.456406 0.428756 -0.288626
0.359155 -0.358830 -0.269223
0.293351 -0.297491 -0.279973
0.207290 -0.236062 -0.277806
0.143461 -0.156231 -0.285817
0.109535 -0.088779 -0.272702
0.000765 -0.006464 -0.285569
-0.082022 0.088511 -0.272139
-0.012844 0.159482 -0.183997
-0.142197 0.238490 -0.227137
-0.354689 0.338099 -0.286231
-0.450537 0.432758 -0.289873
0.375502 -0.354580 -0.271468
0.304757 -0.290088 -0.280594
0.232388 -0.232988 -0.280394
0.160637 -0.149575 -0.284251
0.107909 -0.085613 -0.273454
0.011295 -0.002818 -0.280080
-0.064328 0.093788 -0.272417
-0.003793 0.168695 -0.194094
-0.157229 0.261003 -0.249804
-0.333631 0.336893 -0.284022
-0.415014 0.432178 -0.287380
0.393200 -0.350804 -0.273521
0.317165 -0.292952 -0.280133
0.240946 -0.229459 -0.279171
0.185210 -0.139412 -0.281240
0.120811 -0.083512 -0.274548
0.038454 -0.001590 -0.284575
-0.054680 0.094349 -0.275184
-0.000552 0.174389 -0.206347
-0.174822 0.272070 -0.263431
-0.308379 0.349151 -0.283068
-0.382634 0.441233 -0.289511
0.429091 -0.351026 -0.277237
0.348028 -0.287666 -0.277049
0.250694 -0.227194 -0.280016
0.192533 -0.140670 -0.281166
0.127559 -0.062210 -0.274761
0.056743 0.009679 -0.287980
-0.037320 0.101804 -0.274298
-0.000796 0.173269 -0.208052
-0.181425 0.272040 -0.266402
-0.270351 0.354005 -0.281062
-0.373307 0.444335 -0.288540
0.398731 -0.346514 -0.275828
0.353205 -0.281322 -0.276952
0.280836 -0.219616 -0.282095
0.195978 -0.133546 -0.282580
0.134667 -0.076795 -0.276954
0.062381 0.017345 -0.286937
-0.025969 0.098207 -0.273057
0.014428 0.179331 -0.246932
-0.153270 0.280075 -0.263740
-0.248481 0.361855 -0.280692
-0.350182 0.439554 -0.289627
0.404088 -0.346760 -0.277375
0.384466 -0.290112 -0.272314
0.300945 -0.212681 -0.281734
0.240514 -0.144168 -0.273492
0.148703 -0.069907 -0.277783
0.067478 0.024628 -0.287281
-0.014962 0.100285 -0.273249
0.020883 0.184229 -0.249329
-0.144623 0.280430 -0.266133
-0.228232 0.361132 -0.282912
-0.323399 0.436865 -0.288933
0.435932 -0.347585 -0.281172
0.363857 -0.274437 -0.278114
0.339258 -0.206720 -0.281304
0.248836 -0.139345 -0.274930
0.172922 -0.058589 -0.274155
0.116194 0.023232 -0.282464
0.017899 0.107014 -0.269679
0.064181 0.185930 -0.192538
-0.132636 0.284204 -0.269490
-0.236517 0.371570 -0.284146
-0.333371 0.440307 -0.288220
0.454367 -0.341085 -0.281989
0.370401 -0.274553 -0.277322
0.325478 -0.197478 -0.284459
0.274205 -0.135988 -0.273982
0.217143 -0.059975 -0.270525
0.131483 0.028288 -0.276923
0.035499 0.111704 -0.276721
0.034205 0.178291 -0.254301
-0.109232 0.281174 -0.274227
-0.216818 0.372437 -0.285422
0.481520 -0.331609 -0.276344
0.387760 -0.270208 -0.279268
0.322610 -0.198839 -0.286152
0.309723 -0.128474 -0.271056
0.222900 -0.054522 -0.273370
0.135358 0.033241 -0.277647
0.041134 0.113255 -0.279198
0.004191 0.205068 -0.264857
-0.110646 0.291413 -0.278620
-0.194162 0.377294 -0.287635
0.492326 -0.326709 -0.271602
0.410404 -0.262169 -0.279900
0.330993 -0.191858 -0.287667
0.288881 -0.117778 -0.278958
0.233453 -0.048930 -0.272544
0.156158 0.040602 -0.277152
0.080379 0.113788 -0.287868
0.004834 0.214059 -0.269686
-0.091836 0.293505 -0.285294
-0.166656 0.389058 -0.288457
0.515471 -0.314867 -0.264359
0.452159 -0.255219 -0.275551
0.353151 -0.186962 -0.286748
0.306655 -0.112108 -0.274491
0.229742 -0.046500 -0.273572
0.158160 0.043047 -0.278210
0.074508 0.123007 -0.290781
-0.001108 0.209492 -0.278076
-0.065904 0.291587 -0.287765
-0.147397 0.400329 -0.284032
0.529334 -0.311168 -0.262178
0.470607 -0.244322 -0.272260
0.369261 -0.180942 -0.287167
0.325048 -0.112039 -0.272322
0.248517 -0.037799 -0.276084
0.183966 0.052788 -0.279053
0.096793 0.122212 -0.288511
0.017582 0.215426 -0.280177
-0.047786 0.300516 -0.282889
-0.117408 0.393348 -0.281443
0.532803 -0.307223 -0.262757
0.487173 -0.248650 -0.273182
0.412235 -0.181668 -0.284309
0.348728 -0.108057 -0.268146
0.273607 -0.036847 -0.264831
0.203189 0.055190 -0.278729
0.115200 0.125740 -0.289057
0.061932 0.214218 -0.283530
-0.026293 0.300716 -0.277564
-0.094382 0.405538 -0.280876
0.538539 -0.308827 -0.262532
0.497624 -0.241094 -0.271830
0.416146 -0.173024 -0.280624
0.353656 -0.103130 -0.266779
0.291156 -0.029598 -0.263810
0.227690 0.040075 -0.273818
0.133582 0.130091 -0.286499
0.073760 0.198422 -0.279066
0.003903 0.303035 -0.274838
-0.072581 0.407664 -0.281189
0.505486 -0.239697 -0.270484
0.430954 -0.165970 -0.278552
0.369388 -0.096060 -0.263565
0.318032 -0.024060 -0.261189
0.247067 0.049130 -0.275430
0.164243 0.127196 -0.274261
0.095586 0.215906 -0.282985
0.028259 0.300707 -0.272684
-0.047933 0.405804 -0.283443
0.522191 -0.220839 -0.267236
0.450749 -0.158936 -0.276058
0.397374 -0.089756 -0.257595
0.336094 -0.014844 -0.261656
0.268448 0.056012 -0.277350
0.190279 0.131915 -0.273812
0.115141 0.218030 -0.287310
0.049640 0.306929 -0.270949
-0.025460 0.388042 -0.278896
0.530454 -0.218743 -0.266156
0.465082 -0.167167 -0.272304
0.413703 -0.083899 -0.254147
0.351005 -0.013947 -0.261479
0.283496 0.058568 -0.277938
0.199321 0.141693 -0.271709
0.138773 0.219901 -0.283619
0.073096 0.292357 -0.272583
-0.002844 0.386243 -0.276163
0.536841 -0.226043 -0.267827
0.478400 -0.157820 -0.270208
0.427120 -0.084043 -0.251078
0.366956 -0.007850 -0.261905
0.299318 0.066183 -0.277806
0.222145 0.142097 -0.271157
0.155010 0.222684 -0.283441
0.084602 0.304127 -0.273428
0.016731 0.388640 -0.275995
0.486709 -0.153871 -0.268870
0.439817 -0.079150 -0.247467
0.382839 -0.005187 -0.262240
0.320074 0.069507 -0.275025
0.240132 0.146585 -0.273061
0.179132 0.224054 -0.282059
0.099151 0.313624 -0.274498
0.029849 0.390617 -0.272180
0.504458 -0.142375 -0.267332
0.462248 -0.075501 -0.243987
0.400516 0.001265 -0.264665
0.333255 0.075910 -0.273483
0.260489 0.154575 -0.272946
0.196734 0.227879 -0.279974
0.124191 0.317983 -0.275661
0.054707 0.389027 -0.270902
0.546005 -0.129822 -0.261962
0.476828 -0.068044 -0.244382
0.416485 0.006133 -0.262292
0.344079 0.075512 -0.273622
0.270678 0.160128 -0.275459
0.207594 0.235930 -0.277373
0.139657 0.321060 -0.275026
0.068229 0.398774 -0.271301
0.545903 -0.125783 -0.260639
0.521633 -0.054037 -0.245111
0.430550 0.013462 -0.259172
0.364934 0.085098 -0.267742
0.294215 0.168345 -0.273348
0.235776 0.244273 -0.269870
0.170017 0.321317 -0.271855
0.084018 0.406953 -0.269239
