-0.172915 -0.067895 -0.241227
-0.288151 -0.005368 -0.251503
-0.207275 0.120249 -0.156552
-0.148396 0.233258 -0.076283
-0.644232 0.202929 -0.275572
-0.771669 0.278467 -0.283707
-0.151923 -0.057350 -0.239397
-0.288444 -0.002193 -0.261824
-0.220329 0.119602 -0.173369
-0.159347 0.233565 -0.091642
-0.621993 0.212323 -0.275439
-0.750322 0.287315 -0.284612
-0.130938 -0.046847 -0.237483
-0.262571 0.009533 -0.257883
-0.242530 0.116231 -0.195141
-0.156300 0.237718 -0.099833
-0.599759 0.221675 -0.275213
-0.725420 0.296914 -0.283682
-0.127700 -0.042469 -0.246123
-0.243312 0.019276 -0.258130
-0.248368 0.118019 -0.208984
-0.155347 0.241510 -0.109773
-0.578472 0.231007 -0.276099
-0.701473 0.306524 -0.283859
-0.113230 -0.034134 -0.248410
-0.236533 0.024908 -0.265175
-0.256456 0.119139 -0.224100
-0.155521 0.244994 -0.120326
-0.557187 0.240287 -0.276891
-0.677530 0.316071 -0.283931
-0.825827 0.390580 -0.302373
-0.096515 -0.025039 -0.249364
-0.209332 0.037149 -0.260879
-0.188827 0.142757 -0.198355
-0.157980 0.247851 -0.132108
-0.534733 0.249803 -0.276986
-0.657142 0.324786 -0.285670
-0.799178 0.400262 -0.301718
-0.097900 -0.022562 -0.259946
-0.193683 0.045370 -0.262225
-0.152427 0.156765 -0.188556
-0.153663 0.252301 -0.139683
-0.516027 0.258097 -0.278193
-0.632269 0.334159 -0.284324
-0.771597 0.409768 -0.299719
-0.067963 -0.009099 -0.252559
-0.173509 0.055010 -0.260972
-0.161843 0.157175 -0.203599
-0.212965 0.239680 -0.181123
-0.492646 0.267491 -0.276899
-0.605045 0.343994 -0.281677
-0.749985 0.418072 -0.300536
-0.049216 0.000377 -0.251491
-0.156729 0.063530 -0.261542
-0.152916 0.163003 -0.208650
-0.334553 0.210493 -0.256242
-0.469273 0.276823 -0.275503
-0.584912 0.352226 -0.282512
-0.727187 0.426561 -0.300675
-0.038074 0.007375 -0.255401
-0.136346 0.073365 -0.260668
-0.143757 0.169087 -0.214213
-0.328617 0.215765 -0.264165
-0.449176 0.285568 -0.276439
-0.565717 0.360489 -0.284475
-0.702956 0.435543 -0.300754
-0.018214 0.017169 -0.253543
-0.112803 0.083961 -0.257241
-0.139366 0.173537 -0.221728
-0.321732 0.221028 -0.270871
-0.426985 0.294519 -0.275465
-0.544411 0.368895 -0.284540
-0.686109 0.442809 -0.303671
-0.000378 0.026419 -0.253428
-0.103706 0.090117 -0.262629
-0.133594 0.178603 -0.229138
-0.304223 0.229311 -0.272484
-0.409224 0.302618 -0.277456
-0.519338 0.378309 -0.283294
-0.657140 0.452572 -0.301166
0.020581 0.036511 -0.250751
-0.083553 0.099551 -0.260974
-0.121184 0.185345 -0.232160
-0.286943 0.237266 -0.273456
-0.392863 0.310089 -0.279406
-0.499221 0.386367 -0.283779
-0.636740 0.460414 -0.302113
0.015075 0.037631 -0.264288
-0.074437 0.105645 -0.266262
-0.263681 0.246977 -0.271758
-0.363475 0.320850 -0.275018
-0.480036 0.394445 -0.285390
-0.607799 0.470054 -0.299372
0.048037 0.051588 -0.253716
-0.051136 0.115789 -0.261976
-0.072469 0.205653 -0.224536
-0.244341 0.255158 -0.270743
-0.348522 0.327674 -0.276855
-0.456654 0.402831 -0.283267
0.070514 0.062471 -0.251165
-0.046277 0.120691 -0.270308
-0.074381 0.208603 -0.236820
-0.218568 0.265662 -0.268132
-0.324725 0.337252 -0.275956
-0.410290 0.416726 -0.271061
0.084796 0.070118 -0.252154
-0.017159 0.132788 -0.263104
-0.122091 0.198007 -0.274023
-0.200160 0.273739 -0.268137
-0.292148 0.348341 -0.268759
-0.417132 0.418987 -0.285439
0.107043 0.080641 -0.248911
0.014391 0.145788 -0.254975
-0.084431 0.212087 -0.263109
-0.180377 0.282362 -0.267975
-0.283676 0.354014 -0.275295
-0.395621 0.427362 -0.285459
0.124637 0.089336 -0.247755
0.021067 0.150752 -0.260768
-0.068557 0.219671 -0.263926
-0.163122 0.290049 -0.268471
-0.255764 0.363911 -0.270416
-0.367359 0.436818 -0.281040
0.107097 0.086253 -0.268577
0.040280 0.159806 -0.259736
-0.046799 0.229095 -0.261925
-0.151354 0.296534 -0.272682
-0.273853 0.363397 -0.291548
-0.372704 0.439603 -0.295346
0.119197 0.093046 -0.270733
0.026868 0.158491 -0.277482
-0.062574 0.227657 -0.281068
-0.152379 0.299483 -0.283463
-0.251712 0.371907 -0.289743
-0.352612 0.447311 -0.295190
0.161286 0.110126 -0.255013
0.048333 0.168192 -0.275020
-0.039672 0.237358 -0.278304
-0.131447 0.308250 -0.282381
-0.225879 0.381444 -0.286467
-0.324126 0.456920 -0.291076
0.178654 0.118430 -0.253104
0.070448 0.177647 -0.270771
-0.005970 0.249619 -0.267739
-0.101881 0.318723 -0.274879
-0.190189 0.392698 -0.276143
0.194252 0.126478 -0.253479
0.096342 0.188614 -0.265419
0.012383 0.257933 -0.267420
-0.071868 0.329678 -0.268322
-0.174764 0.399748 -0.278469
0.213146 0.135583 -0.251727
0.119987 0.198839 -0.261308
0.035234 0.267460 -0.264342
-0.055537 0.337129 -0.269573
-0.147840 0.409367 -0.274198
0.232032 0.144647 -0.249890
0.139169 0.207647 -0.259815
0.056944 0.276617 -0.261832
-0.034659 0.345690 -0.268096
-0.120941 0.418915 -0.269810
0.234460 0.148183 -0.258348
0.159451 0.216742 -0.257557
0.062920 0.281375 -0.268690
-0.010389 0.355042 -0.264522
-0.105533 0.425841 -0.271884
0.255312 0.157658 -0.254515
0.172843 0.223514 -0.258834
0.094480 0.292978 -0.259412
0.003416 0.361537 -0.266352
-0.083498 0.433971 -0.269388
0.289501 0.171697 -0.242714
0.188677 0.231192 -0.259170
0.113912 0.301375 -0.257993
0.024261 0.369944 -0.264609
0.308995 0.180453 -0.238898
0.211797 0.240657 -0.253618
0.139580 0.311056 -0.251388
0.045742 0.378053 -0.261069
0.320181 0.186774 -0.241566
0.230932 0.249248 -0.251724
0.155630 0.318435 -0.251848
0.063169 0.385534 -0.261180
0.334426 0.193906 -0.241604
0.254243 0.258868 -0.246476
0.175907 0.326749 -0.248988
0.084865 0.393828 -0.257983
0.351067 0.201964 -0.240641
0.271145 0.266710 -0.245805
0.194175 0.334662 -0.247920
0.107914 0.402605 -0.254520
0.367703 0.209990 -0.239603
0.290244 0.275168 -0.243657
0.218005 0.344045 -0.243300
0.124185 0.409675 -0.255070
0.380621 0.216423 -0.239705
0.305567 0.282105 -0.242588
0.229097 0.349554 -0.245265
0.138839 0.415924 -0.255237
0.400952 0.225909 -0.237316
0.324008 0.290645 -0.241938
0.247812 0.357848 -0.244939
0.157839 0.423992 -0.255270
0.413863 0.232291 -0.237298
0.334927 0.296205 -0.243580
0.263346 0.364497 -0.243996
0.426139 0.238756 -0.238868
0.351796 0.303862 -0.242558
0.289333 0.374281 -0.237611
0.442517 0.246361 -0.237041
0.367328 0.310902 -0.241712
0.290678 0.377271 -0.246195
0.462354 0.255209 -0.233426
0.381993 0.317839 -0.241984
0.305570 0.384034 -0.246738
0.476780 0.262280 -0.233362
0.396655 0.324734 -0.242198
0.327090 0.392503 -0.242946
0.488588 0.268169 -0.233801
0.415210 0.332401 -0.238537
0.342589 0.398987 -0.241691
0.503006 0.275168 -0.233624
0.426586 0.338280 -0.240792
0.360768 0.406510 -0.239880
0.520645 0.283174 -0.231180
0.446677 0.346656 -0.237180
0.532672 0.289207 -0.231908
0.461077 0.353182 -0.236681
0.550292 0.297140 -0.229328
0.473535 0.359286 -0.238040
0.565526 0.304129 -0.227720
0.492265 0.367005 -0.234487
0.505799 0.373356 -0.234991
0.521254 0.380067 -0.233514
0.536940 0.386973 -0.232416
0.541585 0.390549 -0.238269
-0.006646 -0.115869 0.910512
-0.036028 -0.120452 0.894615
-0.044024 -0.118695 0.884009
-0.116442 -0.219730 0.812398
-0.048227 -0.115817 0.874333
-0.024478 -0.028523 0.922911
-0.104445 -0.212053 0.807424
-0.041159 -0.109918 0.868090
-0.031283 -0.026519 0.913209
-0.093670 -0.204797 0.802162
-0.039091 -0.105499 0.860564
-0.035530 -0.023816 0.904106
-0.089035 -0.199227 0.794698
-0.035688 -0.100432 0.852854
-0.056138 -0.025183 0.890312
-0.075737 -0.191242 0.790212
-0.057397 -0.102878 0.838987
-0.066649 -0.024114 0.879518
-0.061118 -0.182619 0.785608
-0.055193 -0.098161 0.830907
-0.069486 -0.020733 0.870094
-0.025358 -0.250993 0.742991
-0.046478 -0.174037 0.781070
-0.054214 -0.093804 0.822493
-0.073558 -0.017680 0.860325
-0.057693 -0.258280 0.725764
-0.029467 -0.165281 0.778360
-0.054591 -0.090371 0.814788
-0.051193 -0.008256 0.858537
-0.060290 -0.254868 0.715720
-0.020935 -0.158406 0.771649
-0.057254 -0.086794 0.804808
-0.058940 -0.005923 0.847263
-0.059304 -0.250798 0.707832
-0.013753 -0.152476 0.765652
-0.056264 -0.082725 0.796916
-0.043483 -0.241600 0.703950
-0.006484 -0.146300 0.759170
-0.057685 -0.079076 0.787792
-0.021576 -0.230706 0.702561
-0.004223 -0.141911 0.751765
-0.066657 -0.077802 0.777055
-0.026595 -0.228414 0.692327
-0.006827 -0.138756 0.742369
-0.075526 -0.076219 0.765745
-0.035413 -0.227859 0.681952
-0.002112 -0.133905 0.736234
-0.060750 -0.068594 0.762307
-0.024425 -0.220367 0.676705
-0.004665 -0.130750 0.726825
-0.060813 -0.064585 0.753512
-0.022003 -0.215671 0.668772
-0.002233 -0.126094 0.718917
-0.052100 -0.058163 0.747281
-0.086243 -0.319696 0.594103
-0.025762 -0.213234 0.659394
-0.001094 -0.122096 0.711155
-0.058438 -0.056158 0.737179
-0.072844 -0.311125 0.589725
-0.034317 -0.212073 0.647886
-0.029554 -0.126629 0.693632
-0.063416 -0.053507 0.726889
-0.074061 -0.307888 0.580991
-0.068651 -0.219411 0.628457
-0.040725 -0.126259 0.681927
-0.067196 -0.050784 0.717475
-0.067813 -0.301588 0.573684
-0.070925 -0.215948 0.618285
-0.040571 -0.122025 0.672636
-0.105723 -0.056929 0.696371
-0.146909 0.015699 0.727940
-0.061793 -0.296141 0.567981
-0.053833 -0.207099 0.616173
-0.008498 -0.109199 0.675151
-0.109521 -0.054432 0.687371
-0.165829 0.014651 0.714461
-0.055585 -0.290149 0.561252
-0.047574 -0.201211 0.609408
-0.047927 -0.116825 0.653759
-0.105636 -0.049355 0.679588
-0.156867 0.020982 0.707999
-0.038545 -0.280745 0.558880
-0.013244 -0.186761 0.612659
-0.033038 -0.108829 0.650286
-0.101815 -0.044566 0.672356
-0.130376 0.031290 0.707373
-0.027455 -0.273151 0.553935
-0.043638 -0.192464 0.593579
-0.027922 -0.103444 0.643135
-0.099127 -0.039838 0.664214
-0.020068 -0.267098 0.548269
-0.030067 -0.184602 0.589899
-0.022876 -0.098357 0.636527
-0.085297 -0.032428 0.660154
-0.011360 -0.260376 0.542550
-0.016389 -0.176494 0.585758
-0.020183 -0.093701 0.628601
-0.085054 -0.028379 0.651262
-0.006354 -0.255155 0.536080
-0.010118 -0.170975 0.579659
-0.010161 -0.087226 0.623673
-0.082390 -0.023950 0.643701
-0.002535 -0.250366 0.529195
-0.011152 -0.167727 0.571031
-0.006286 -0.082519 0.616715
-0.062289 -0.014988 0.641774
-0.001013 -0.246111 0.520924
-0.002304 -0.161201 0.565304
-0.004756 -0.078254 0.608421
-0.063219 -0.011288 0.632527
0.007778 -0.239452 0.515318
0.006566 -0.154696 0.559615
-0.003201 -0.073979 0.600130
-0.065362 -0.007907 0.622861
0.010554 -0.234807 0.507517
0.006920 -0.150822 0.550926
-0.016392 -0.073876 0.586768
-0.077414 -0.007085 0.609891
0.006018 -0.232833 0.497551
0.007200 -0.147224 0.542748
-0.022262 -0.071944 0.576411
-0.140438 -0.019561 0.580416
-0.016571 -0.236800 0.480786
0.008724 -0.143247 0.535009
-0.020724 -0.067936 0.568597
-0.150014 -0.018256 0.568574
-0.016222 -0.233203 0.472547
0.009051 -0.139650 0.526831
-0.017933 -0.063589 0.561218
-0.158314 -0.016612 0.557105
-0.003699 -0.225393 0.468356
0.008292 -0.136145 0.517687
-0.026072 -0.062037 0.549418
-0.166469 -0.014659 0.545050
0.012344 -0.216709 0.466118
0.005021 -0.133638 0.508155
-0.045337 -0.063794 0.534161
-0.157350 -0.008595 0.539451
0.023691 -0.209350 0.461583
0.006750 -0.129393 0.499892
-0.047261 -0.060485 0.524449
-0.156770 -0.004444 0.530351
0.031446 -0.203194 0.455705
0.003645 -0.126608 0.489815
-0.040568 -0.054833 0.517826
-0.168542 -0.003385 0.516934
0.031788 -0.199916 0.448072
0.006419 -0.122549 0.483043
-0.037760 -0.050742 0.510937
-0.164424 0.001126 0.510190
0.028885 -0.196986 0.437483
0.009552 -0.117677 0.474725
-0.051744 -0.050495 0.496203
-0.161163 0.006193 0.501392
0.032991 -0.192280 0.430747
0.008843 -0.114430 0.466064
-0.048767 -0.046127 0.488772
-0.163060 0.009451 0.491933
0.037234 -0.187316 0.423514
0.010702 -0.110196 0.457810
-0.040751 -0.040167 0.482644
-0.151218 0.016337 0.486788
0.035502 -0.184274 0.413898
0.007740 -0.107390 0.447684
-0.052294 -0.039468 0.469227
-0.166520 0.016573 0.471884
0.034761 -0.181375 0.405773
0.008200 -0.104050 0.439989
-0.051814 -0.036046 0.461406
-0.168460 0.019564 0.462927
0.036679 -0.177183 0.397590
0.007717 -0.100525 0.430783
-0.038837 -0.028800 0.457167
-0.160247 0.025525 0.456484
0.034908 -0.174397 0.388456
0.008347 -0.096917 0.422564
-0.049185 -0.028019 0.444650
-0.159542 0.029399 0.447889
0.033288 -0.171324 0.378801
0.011546 -0.092334 0.414786
-0.044715 -0.023066 0.437183
-0.158678 0.033551 0.438750
-0.019857 -0.184623 0.348412
0.012226 -0.088727 0.406573
-0.046454 -0.020003 0.427900
-0.155457 0.038011 0.431076
-0.007044 -0.177008 0.344562
0.002188 -0.087966 0.393464
-0.043155 -0.015378 0.419976
-0.154538 0.042174 0.421942
-0.006163 -0.173133 0.335778
0.005470 -0.083383 0.385682
-0.044707 -0.012028 0.410152
-0.162199 0.044291 0.409540
-0.010162 -0.171016 0.325498
0.002611 -0.080803 0.375967
-0.045143 -0.008636 0.401321
-0.155213 0.049614 0.403271
-0.009223 -0.167142 0.316699
-0.000084 -0.077935 0.365718
-0.050287 -0.006232 0.390023
-0.154208 0.053777 0.394127
-0.009452 -0.163627 0.307390
-0.030458 -0.082879 0.344010
-0.051745 -0.002861 0.380155
-0.153173 0.057929 0.384983
-0.012309 -0.161397 0.298092
-0.017696 -0.076106 0.341202
-0.075337 -0.005656 0.362527
-0.148720 0.062369 0.378354
-0.014860 -0.158601 0.287737
-0.009462 -0.070166 0.335392
-0.145182 0.067085 0.370179
-0.018711 -0.156443 0.277368
-0.008564 -0.066528 0.327104
-0.146667 0.070384 0.360618
-0.017632 -0.152548 0.268532
-0.013507 -0.064288 0.315753
-0.143076 0.075102 0.352453
-0.019045 -0.149660 0.259172
-0.013757 -0.060978 0.306938
-0.146952 0.077846 0.341903
-0.031124 -0.149979 0.245079
-0.009179 -0.056343 0.300170
-0.131231 0.085040 0.339203
-0.058443 -0.154624 0.223546
-0.012830 -0.053743 0.289284
-0.356168 -0.338205 0.029829
-0.050107 -0.148550 0.217783
-0.015247 -0.050814 0.278891
-0.103935 -0.252822 0.136951
-0.034792 -0.140647 0.215776
-0.012992 -0.046837 0.271094
-0.055748 -0.233686 0.149725
-0.143707 -0.169474 0.157050
-0.016544 -0.044227 0.260154
-0.034687 -0.223635 0.150627
-0.063183 -0.142209 0.184511
-0.034573 -0.045748 0.243373
-0.026342 -0.217500 0.145034
-0.058299 -0.137204 0.177165
-0.015337 -0.036971 0.242441
-0.025155 -0.213893 0.136674
-0.038184 -0.127975 0.177438
-0.020277 -0.208908 0.129459
-0.032085 -0.122662 0.170713
-0.677121 0.095111 0.083792
-0.018036 -0.205208 0.122183
-0.028650 -0.118613 0.163954
-0.704622 -0.005933 0.010744
-0.181762 0.194409 0.278850
-0.022447 -0.203194 0.110500
-0.022511 -0.113330 0.157266
-0.425838 0.058648 0.118979
-0.171680 0.200278 0.273159
-0.017496 -0.198220 0.103311
-0.022244 -0.109764 0.147826
-0.220252 0.106889 0.197128
-0.157911 0.206835 0.269048
-0.019511 -0.195455 0.092728
-0.021946 -0.106198 0.138382
-0.204095 0.114248 0.194090
-0.139242 0.214276 0.267063
-0.021662 -0.192948 0.082651
-0.000604 -0.096805 0.139545
-0.190533 0.120763 0.190608
-0.131739 0.219322 0.261030
-0.028264 -0.191632 0.069745
0.003261 -0.092252 0.131833
-0.188890 0.124977 0.181312
-0.131370 0.223268 0.251359
-0.062896 -0.199268 0.043498
0.009332 -0.087308 0.125779
-0.188609 0.128656 0.172027
-0.128709 0.227379 0.243268
-0.075380 -0.199967 0.028082
0.001329 -0.086393 0.112920
-0.187090 0.132582 0.163278
-0.128461 0.231038 0.234129
-0.096921 -0.203225 0.007420
-0.009981 -0.086178 0.097784
-0.858562 -0.217058 -0.258600
-0.180530 0.137803 0.156143
-0.147492 0.231407 0.215964
-0.117420 -0.206339 -0.012236
-0.005006 -0.081564 0.091153
-0.830395 -0.205691 -0.256467
-0.168100 0.143969 0.152300
-0.152040 0.234203 0.204642
-0.133039 -0.207705 -0.030180
-0.026774 -0.084287 0.070740
-0.802018 -0.194047 -0.254857
-0.156680 0.150136 0.147416
-0.166094 0.235539 0.188458
-0.152260 -0.210377 -0.049436
-0.026420 -0.080968 0.061758
-0.772689 -0.182516 -0.251909
-0.153869 0.154277 0.139273
-0.193647 0.234213 0.166818
-0.170266 -0.212638 -0.068192
-0.022529 -0.076672 0.054520
-0.741010 -0.170441 -0.247691
-0.147423 0.159149 0.132796
-0.191990 0.238180 0.158044
-0.795229 0.231222 -0.058522
-0.152191 -0.203625 -0.069140
-0.039467 -0.077976 0.036234
-0.731560 -0.163791 -0.254900
-0.846795 -0.084894 -0.255047
-0.147983 0.162828 0.122468
-0.169491 0.246104 0.157978
-0.056742 -0.171119 -0.029956
-0.578232 -0.224272 -0.245129
-0.703213 -0.152404 -0.252817
-0.696617 -0.046405 -0.195478
-0.142500 0.167720 0.114921
-0.160329 0.251623 0.151992
-0.350207 -0.358678 -0.245558
-0.036424 -0.161592 -0.029352
-0.571263 -0.218353 -0.253040
-0.681949 -0.142856 -0.254091
-0.189665 0.072193 0.036221
-0.135794 0.172838 0.107954
-0.166891 0.254346 0.138885
-0.337798 -0.351031 -0.249769
-0.034556 -0.157697 -0.038316
-0.544455 -0.206996 -0.250825
-0.663039 -0.133957 -0.256439
-0.169848 0.080384 0.035505
-0.129068 0.177946 0.101012
-0.154053 0.260471 0.134592
-0.321031 -0.342213 -0.250900
-0.028244 -0.152682 -0.044328
-0.531851 -0.199854 -0.255051
-0.640825 -0.124543 -0.256328
-0.169241 0.084002 0.026186
-0.126113 0.182046 0.092931
-0.161954 0.262712 0.121445
-0.305399 -0.333806 -0.252583
-0.020763 -0.147337 -0.049714
-0.500621 -0.187634 -0.249644
-0.622140 -0.116043 -0.257894
-0.167418 0.087876 0.017443
-0.123135 0.186136 0.084859
-0.175851 0.263935 0.105459
-0.285216 -0.323951 -0.251717
-0.019017 -0.143730 -0.058125
-0.455462 -0.171684 -0.236874
-0.598755 -0.106444 -0.257012
-0.154897 0.094115 0.013940
-0.115348 0.191172 0.079080
-0.186075 0.265816 0.091086
-0.267101 -0.314589 -0.252572
-0.015901 -0.139516 -0.066442
-0.458911 -0.168796 -0.249888
-0.582191 -0.098295 -0.260209
-0.149271 0.099048 0.006438
-0.109734 0.196003 0.071645
-0.199659 0.267388 0.074417
-0.249194 -0.305555 -0.252793
-0.015251 -0.136249 -0.075466
-0.449776 -0.162753 -0.255658
-0.558814 -0.088789 -0.259142
-0.122521 0.108348 0.010079
-0.112663 0.198911 0.060719
-0.190510 0.272588 0.069003
-0.139597 -0.365779 -0.254145
-0.235610 -0.297744 -0.256005
-0.016669 -0.133402 -0.086252
-0.428807 -0.153288 -0.255879
-0.541072 -0.080444 -0.261583
-0.114506 0.113744 0.003848
-0.115350 0.202118 0.049238
-0.135403 0.285764 0.084745
-0.120838 -0.356200 -0.253248
-0.215434 -0.288063 -0.254823
-0.017108 -0.130472 -0.095912
-0.412699 -0.145416 -0.257876
-0.515366 -0.070464 -0.259122
-0.110227 0.118071 -0.003598
-0.113438 0.205961 0.040602
-0.129874 0.290275 0.077787
-0.106137 -0.347671 -0.255908
-0.195970 -0.278207 -0.255286
-0.014822 -0.126321 -0.105370
-0.390348 -0.135426 -0.257886
-0.500900 -0.062756 -0.263803
-0.116130 0.120660 -0.017472
-0.088449 0.214686 0.042043
-0.131108 0.294140 0.066313
-0.092057 -0.340014 -0.256907
-0.176019 -0.268906 -0.253387
-0.014261 -0.123330 -0.113895
-0.362902 -0.124861 -0.252976
-0.480116 -0.054319 -0.262988
-0.115544 0.123949 -0.026179
-0.106946 0.214389 0.023984
-0.126943 0.298148 0.059335
-0.055242 -0.324064 -0.245964
-0.168069 -0.263048 -0.259522
-0.016692 -0.120792 -0.125354
-0.347728 -0.117133 -0.255928
-0.458867 -0.045306 -0.263271
-0.113328 0.128039 -0.035359
-0.143980 0.211100 -0.004710
-0.149904 0.298199 0.037917
-0.014215 -0.306932 -0.231733
-0.145650 -0.252812 -0.256745
-0.007880 -0.115191 -0.129984
-0.330469 -0.109127 -0.256997
-0.442524 -0.037772 -0.265329
-0.110121 0.132110 -0.043398
-0.153808 0.212754 -0.019367
-0.131082 0.304859 0.037375
-0.013114 -0.303499 -0.241326
-0.086952 -0.230860 -0.233794
-0.172189 -0.159742 -0.231707
-0.309520 -0.099939 -0.256683
-0.423612 -0.029407 -0.266672
-0.106674 0.136457 -0.051965
-0.151500 0.216927 -0.028648
-0.764263 0.206177 -0.283674
-0.003984 -0.297117 -0.246856
-0.092310 -0.229144 -0.247976
-0.173000 -0.156371 -0.243495
-0.298713 -0.093249 -0.262505
-0.380029 -0.015009 -0.255486
-0.110029 0.139581 -0.064721
-0.152495 0.220729 -0.040269
-0.734758 0.215724 -0.282094
0.011195 -0.289265 -0.246851
-0.080274 -0.222556 -0.250209
-0.132328 -0.141685 -0.229950
-0.272475 -0.083229 -0.257747
-0.345338 -0.003529 -0.246738
-0.110482 0.142623 -0.074058
-0.138725 0.226536 -0.042435
-0.728744 0.220596 -0.289753
0.026372 -0.281434 -0.246789
-0.073853 -0.217767 -0.255653
-0.147427 -0.143134 -0.247765
-0.262351 -0.077483 -0.261768
-0.346688 -0.000590 -0.257228
-0.108562 0.146158 -0.082172
-0.133235 0.230780 -0.048789
-0.692875 0.230184 -0.282507
-0.833098 0.311919 -0.298838
0.038646 -0.274250 -0.249679
-0.051257 -0.207479 -0.252968
-0.130209 -0.134851 -0.248644
-0.242564 -0.068769 -0.261765
-0.347531 0.002966 -0.268875
-0.108514 0.149765 -0.092590
-0.136737 0.233854 -0.061073
-0.680362 0.236598 -0.288324
-0.805954 0.320233 -0.298026
0.058684 -0.264446 -0.247858
-0.037647 -0.200070 -0.255442
-0.131149 -0.131799 -0.259831
-0.220486 -0.059519 -0.260399
-0.325151 0.011918 -0.267919
-0.106092 0.153856 -0.101775
-0.136652 0.237594 -0.071548
-0.651161 0.245580 -0.285675
-0.780023 0.328322 -0.297687
0.072072 -0.256954 -0.249960
-0.028514 -0.194088 -0.260499
-0.127517 -0.127451 -0.268422
-0.190394 -0.048245 -0.254430
-0.308572 0.019471 -0.270031
-0.103639 0.157946 -0.110958
-0.136533 0.241325 -0.082033
-0.630309 0.253205 -0.287122
-0.754105 0.336348 -0.297230
0.087462 -0.248989 -0.250157
-0.008393 -0.184911 -0.258374
-0.090110 -0.113731 -0.256842
-0.186900 -0.044103 -0.262631
-0.284133 0.028567 -0.267053
-0.121245 0.157689 -0.130261
-0.134255 0.245210 -0.090750
-0.606160 0.261005 -0.286042
-0.733266 0.343357 -0.298411
0.088703 -0.245680 -0.259548
0.009702 -0.176206 -0.258009
-0.075149 -0.106229 -0.258767
-0.172851 -0.037043 -0.265534
-0.268714 0.035771 -0.269645
-0.161888 0.153003 -0.162786
-0.137603 0.248314 -0.103106
-0.591255 0.267624 -0.290352
-0.706172 0.351424 -0.297139
-0.821313 0.439335 -0.301923
0.116246 -0.233666 -0.252218
0.024219 -0.168848 -0.259058
-0.060411 -0.099035 -0.260100
-0.155604 -0.029427 -0.265884
-0.246608 0.044239 -0.267765
-0.190993 0.150495 -0.188643
-0.143499 0.250739 -0.116191
-0.560005 0.276411 -0.285413
-0.680566 0.358947 -0.295724
-0.789410 0.447105 -0.298018
0.132954 -0.225187 -0.252051
0.043426 -0.159876 -0.257876
-0.042058 -0.090659 -0.259913
-0.130132 -0.019531 -0.262128
-0.225423 0.052677 -0.266989
-0.195314 0.153291 -0.201854
-0.142063 0.254706 -0.126104
-0.539181 0.283831 -0.286482
-0.660670 0.365987 -0.297846
-0.774092 0.453436 -0.302933
0.151642 -0.216256 -0.249954
0.056825 -0.152928 -0.259468
-0.029579 -0.084163 -0.262449
-0.111759 -0.011710 -0.261663
-0.213708 0.058689 -0.270747
-0.164935 0.162818 -0.195414
-0.146703 0.257358 -0.138614
-0.512710 0.291775 -0.283769
-0.632704 0.373695 -0.295010
-0.760248 0.459263 -0.307743
0.171422 -0.206996 -0.247097
0.075795 -0.144306 -0.257631
-0.012589 -0.076446 -0.262266
-0.097949 -0.005071 -0.263754
-0.188174 0.067795 -0.266665
-0.147369 0.169714 -0.195886
-0.168892 0.256967 -0.160620
-0.493353 0.298610 -0.284670
-0.614289 0.380159 -0.296939
-0.725994 0.467104 -0.302304
0.177120 -0.202310 -0.253569
0.088306 -0.137502 -0.260288
0.008007 -0.067546 -0.260519
-0.078208 0.003233 -0.263014
-0.164715 0.076612 -0.264319
-0.149297 0.172941 -0.207767
-0.187241 0.257522 -0.181383
-0.465465 0.306924 -0.281718
-0.590841 0.387487 -0.296952
-0.701080 0.474247 -0.302167
0.196891 -0.193122 -0.250576
0.110599 -0.127934 -0.256259
0.024987 -0.059910 -0.260188
-0.060988 0.010653 -0.262991
-0.150705 0.083036 -0.266575
-0.142156 0.177719 -0.213951
-0.311072 0.239721 -0.258967
-0.444946 0.313831 -0.281813
-0.568870 0.394301 -0.296870
-0.678861 0.480773 -0.302507
0.215774 -0.184088 -0.248677
0.125331 -0.120524 -0.257423
0.039947 -0.052654 -0.261650
-0.041261 0.018875 -0.262086
-0.130710 0.090990 -0.266023
-0.132433 0.183228 -0.219357
-0.332662 0.239917 -0.282099
-0.426524 0.320654 -0.283666
-0.547818 0.401238 -0.297921
0.219308 -0.180193 -0.256413
0.138954 -0.113485 -0.259211
0.060518 -0.043887 -0.259656
-0.029483 0.025083 -0.265786
-0.110723 0.098893 -0.265383
-0.129641 0.187360 -0.228634
-0.328481 0.244532 -0.291223
-0.402218 0.328291 -0.282281
-0.522029 0.408689 -0.296392
0.244534 -0.169310 -0.249726
0.158996 -0.104718 -0.256314
0.076360 -0.036673 -0.259790
-0.012273 0.032390 -0.265552
-0.090993 0.106478 -0.264124
-0.127066 0.191203 -0.237367
-0.304710 0.252188 -0.288805
-0.384078 0.334713 -0.283383
-0.498905 0.415493 -0.295400
0.275198 -0.156669 -0.239439
0.159107 -0.102005 -0.265779
0.088839 -0.030404 -0.261909
0.010590 0.041054 -0.261876
-0.078134 0.112511 -0.266781
-0.070203 0.205550 -0.215225
-0.284451 0.259207 -0.288229
-0.363592 0.341435 -0.283134
-0.482898 0.421401 -0.298077
0.283115 -0.151418 -0.244223
0.189325 -0.090063 -0.257002
0.101558 -0.023909 -0.264484
0.020111 0.046604 -0.266750
-0.055884 0.120784 -0.264563
-0.053546 0.212261 -0.216443
-0.262774 0.266668 -0.287482
-0.347540 0.347756 -0.285940
-0.441778 0.430487 -0.288050
0.301730 -0.142846 -0.241463
0.213755 -0.080094 -0.251090
0.120748 -0.015872 -0.262374
0.031657 0.052420 -0.269712
-0.048731 0.125501 -0.270455
-0.078614 0.210719 -0.240908
-0.244861 0.273205 -0.288039
-0.314175 0.356204 -0.278458
-0.417528 0.437249 -0.286107
0.282421 -0.146567 -0.263836
0.236186 -0.070587 -0.246954
0.146857 -0.005810 -0.256532
0.066016 0.063972 -0.259481
-0.032195 0.132459 -0.271452
-0.133256 0.203824 -0.283327
-0.206951 0.283245 -0.277934
-0.300482 0.362092 -0.282376
-0.408355 0.442511 -0.292913
0.296926 -0.139208 -0.264317
0.231055 -0.069354 -0.260265
0.157336 -0.000025 -0.260291
0.089063 0.072707 -0.255951
0.001414 0.143065 -0.262223
-0.092342 0.215138 -0.270583
-0.185328 0.290542 -0.276873
-0.262224 0.371352 -0.272616
-0.386200 0.449232 -0.292658
0.322935 -0.128469 -0.255967
0.228799 -0.067628 -0.270529
0.181820 0.009133 -0.253971
0.105977 0.079511 -0.254757
0.027659 0.151585 -0.255892
-0.065777 0.223207 -0.264638
-0.159614 0.297973 -0.271981
-0.253763 0.375925 -0.277852
-0.383455 0.453179 -0.301415
0.339595 -0.120483 -0.254872
0.242438 -0.060814 -0.271884
0.173392 0.009780 -0.269497
0.100884 0.081381 -0.268312
0.030522 0.155480 -0.264802
-0.058219 0.228119 -0.271081
-0.147279 0.303667 -0.276038
-0.264580 0.378371 -0.295297
-0.367184 0.459160 -0.304241
0.359272 -0.111717 -0.251090
0.264625 -0.051698 -0.267025
0.182549 0.014960 -0.273355
0.104572 0.085153 -0.275853
0.022950 0.156939 -0.279358
-0.065796 0.229959 -0.285760
-0.162944 0.304601 -0.295500
-0.251135 0.383859 -0.298450
0.370722 -0.105314 -0.253903
0.291649 -0.040835 -0.260170
0.216608 0.027128 -0.262660
0.123363 0.092933 -0.275337
0.036336 0.163270 -0.282613
-0.051060 0.236402 -0.288646
-0.145675 0.311292 -0.297391
-0.201049 0.394733 -0.282209
0.386279 -0.097791 -0.253323
0.308550 -0.033178 -0.259155
0.224891 0.032195 -0.267585
0.140775 0.100147 -0.274938
0.060788 0.171687 -0.278391
-0.024014 0.244850 -0.283445
-0.120609 0.318938 -0.293956
-0.188524 0.400251 -0.286385
0.405693 -0.089385 -0.248862
0.323875 -0.026375 -0.257847
0.253734 0.042307 -0.258033
0.171111 0.109983 -0.265057
0.089227 0.180474 -0.270280
0.011610 0.254377 -0.271611
-0.091498 0.326698 -0.286644
-0.167251 0.406397 -0.284090
0.416913 -0.083321 -0.251049
0.345129 -0.017526 -0.253814
0.273072 0.050231 -0.255725
0.191842 0.117896 -0.262369
0.113626 0.188778 -0.265838
0.034026 0.261869 -0.268901
-0.072236 0.333337 -0.286374
-0.152405 0.412163 -0.286808
0.435684 -0.074853 -0.248081
0.355448 -0.011894 -0.256910
0.289082 0.057240 -0.255479
0.205859 0.124175 -0.263828
0.131232 0.195612 -0.265478
0.051867 0.268467 -0.268849
-0.051837 0.340099 -0.285339
-0.110912 0.421330 -0.274036
0.448826 -0.068398 -0.248248
0.374259 -0.004002 -0.253706
0.305948 0.064249 -0.253973
0.222972 0.130959 -0.262619
0.150829 0.202621 -0.263145
0.073987 0.275589 -0.265442
-0.028278 0.347077 -0.281642
-0.099842 0.426273 -0.278054
0.474028 -0.057957 -0.240723
0.390025 0.003151 -0.253063
0.319742 0.070611 -0.255029
0.239210 0.137700 -0.262534
0.170664 0.209846 -0.261223
0.095214 0.282721 -0.263145
-0.011347 0.353212 -0.282481
-0.081555 0.432337 -0.278504
0.511632 -0.043938 -0.223357
0.404220 0.009472 -0.252174
0.336347 0.077312 -0.252927
0.262727 0.145706 -0.256419
0.189973 0.216506 -0.258238
0.106820 0.287665 -0.265329
0.009613 0.359471 -0.279457
-0.053443 0.439130 -0.271708
0.515292 -0.040444 -0.230379
0.440612 0.022493 -0.237485
0.360021 0.086170 -0.247339
0.276719 0.151852 -0.257614
0.208656 0.223412 -0.256858
0.126888 0.294519 -0.263574
0.031097 0.366224 -0.277384
0.513385 -0.038862 -0.240666
0.452837 0.028341 -0.238357
0.388912 0.096159 -0.237547
0.296007 0.158995 -0.254679
0.221464 0.228879 -0.258472
0.147810 0.301261 -0.260529
0.048866 0.372153 -0.276785
0.540876 -0.027721 -0.231733
0.453620 0.031228 -0.248192
0.391943 0.099778 -0.246072
0.316888 0.166836 -0.251884
0.241504 0.236186 -0.256714
0.168109 0.308271 -0.259096
0.067169 0.378567 -0.277135
0.549691 -0.022799 -0.234513
0.478844 0.040745 -0.240106
0.396700 0.103477 -0.252210
0.332820 0.173126 -0.250959
0.268840 0.244511 -0.248891
0.190121 0.315115 -0.255167
0.088333 0.384907 -0.274288
0.567287 -0.014998 -0.231692
0.493467 0.047353 -0.239787
0.426868 0.113837 -0.241874
0.350101 0.179888 -0.249705
0.280763 0.249896 -0.251499
0.206738 0.321189 -0.255193
0.112026 0.391803 -0.270457
0.508923 0.054013 -0.238220
0.441457 0.119993 -0.241285
0.366014 0.186105 -0.248646
0.303584 0.257234 -0.246362
0.225333 0.327355 -0.253233
0.129741 0.397559 -0.269542
0.522214 0.060036 -0.238087
0.460403 0.127228 -0.237676
0.378610 0.191553 -0.249723
0.318581 0.262969 -0.246203
0.243915 0.333491 -0.251198
0.148578 0.403447 -0.267849
0.532991 0.065791 -0.241463
0.476798 0.134288 -0.237555
0.405173 0.200658 -0.243297
0.333235 0.269186 -0.248118
0.264399 0.340521 -0.249805
0.175018 0.411032 -0.263302
0.551171 0.072820 -0.236592
0.489780 0.139612 -0.236633
0.422745 0.206783 -0.239639
0.348813 0.274592 -0.246175
0.281295 0.345875 -0.247377
0.184218 0.415009 -0.266149
0.561464 0.078072 -0.238994
0.512186 0.147782 -0.231003
0.432269 0.211624 -0.243199
0.360721 0.279823 -0.248497
0.297857 0.351754 -0.247036
0.202155 0.420867 -0.265435
0.521298 0.152407 -0.233848
0.450324 0.218161 -0.240327
0.377908 0.285866 -0.246635
0.313021 0.357159 -0.246876
0.530663 0.157248 -0.237097
0.462042 0.223443 -0.242300
0.393131 0.291683 -0.246637
0.330679 0.363151 -0.245669
0.548692 0.164215 -0.234261
0.477043 0.229414 -0.241984
0.414975 0.298744 -0.242131
0.349438 0.369286 -0.243654
0.566456 0.170926 -0.230916
0.488505 0.234409 -0.243416
0.432119 0.304673 -0.240049
0.362345 0.374230 -0.244769
0.507601 0.241037 -0.239525
0.441534 0.309092 -0.243117
0.379698 0.379861 -0.242886
0.521486 0.246680 -0.239777
0.462221 0.315814 -0.239120
0.396193 0.385524 -0.242131
0.539971 0.253452 -0.237375
0.477651 0.321682 -0.239232
0.405179 0.390128 -0.246964
0.551155 0.258097 -0.238153
0.492287 0.326821 -0.237945
0.421124 0.395246 -0.245173
0.568272 0.264346 -0.235939
0.507437 0.332401 -0.237488
0.439805 0.401156 -0.242735
0.511107 0.335443 -0.243672
0.547016 0.344806 -0.228655
0.552037 0.348228 -0.234428
0.566056 0.353470 -0.234489
-0.085934 -0.156525 0.870428
-0.073169 -0.149804 0.864979
-0.037047 -0.065603 0.914931
-0.050157 -0.141058 0.862280
-0.015189 -0.057587 0.911768
-0.009245 -0.128756 0.864441
-0.006185 -0.051924 0.905445
-0.002910 -0.123741 0.858067
0.001470 -0.046796 0.899348
-0.057091 -0.209288 0.793966
-0.022100 -0.123823 0.844812
0.000145 -0.043260 0.890957
-0.052003 -0.204407 0.787203
-0.004228 -0.116536 0.841564
0.007839 -0.038153 0.884904
-0.039205 -0.197582 0.782122
-0.019439 -0.115530 0.828751
0.006646 -0.034350 0.876001
-0.029013 -0.191632 0.776882
-0.030872 -0.114029 0.817441
0.019517 -0.028379 0.871356
0.009134 -0.179372 0.779308
-0.023053 -0.108490 0.810913
0.023509 -0.023703 0.863845
0.033265 -0.170492 0.778322
-0.021681 -0.104492 0.803136
0.022300 -0.020188 0.855472
0.047284 -0.163843 0.774437
-0.007545 -0.098038 0.798994
0.022397 -0.016457 0.847443
0.046333 -0.159927 0.765053
-0.008487 -0.093989 0.789485
0.008608 -0.014546 0.834494
-0.030260 -0.251949 0.692098
0.052802 -0.154943 0.758966
-0.003227 -0.089282 0.782848
0.006201 -0.011216 0.825712
-0.026185 -0.247078 0.684593
0.053071 -0.151027 0.750478
0.004695 -0.083835 0.776461
0.011602 -0.006334 0.818559
0.000358 -0.237232 0.684822
0.054531 -0.147122 0.742881
0.001092 -0.080813 0.767245
-0.025318 -0.008688 0.799978
-0.005548 -0.234735 0.674178
0.056113 -0.142949 0.734779
0.025581 -0.072314 0.765816
-0.062079 -0.010672 0.780695
-0.021640 -0.235094 0.661287
0.054994 -0.139845 0.726907
0.028271 -0.068409 0.759041
-0.056781 -0.006283 0.774452
-0.017473 -0.230254 0.653826
0.036455 -0.139845 0.712460
0.023570 -0.065367 0.748946
-0.062759 -0.003190 0.763833
-0.022031 -0.227418 0.643495
0.019222 -0.139537 0.698319
0.026516 -0.060927 0.741151
-0.096810 -0.004577 0.744941
-0.076062 -0.318134 0.574150
-0.025419 -0.224571 0.634073
0.014520 -0.136876 0.688630
0.011619 -0.059981 0.728410
-0.107925 -0.002511 0.733209
-0.063145 -0.311011 0.569610
-0.026168 -0.220871 0.624947
0.016249 -0.132661 0.680429
0.010818 -0.056209 0.719410
-0.098467 0.003080 0.726981
-0.050437 -0.304486 0.566175
-0.029611 -0.218281 0.616011
0.020301 -0.128479 0.674072
0.012357 -0.052531 0.712221
-0.094323 0.007282 0.720320
-0.036141 -0.296850 0.561665
-0.066375 -0.222402 0.594056
0.010873 -0.126270 0.661670
-0.037679 -0.057258 0.687124
-0.097462 0.011147 0.709759
-0.028244 -0.291321 0.556067
-0.069631 -0.219473 0.584486
0.010056 -0.122816 0.653145
-0.008102 -0.048327 0.688157
-0.093157 0.015628 0.702581
-0.028865 -0.287662 0.546895
-0.059028 -0.213214 0.579093
0.000587 -0.120843 0.641175
0.000074 -0.042973 0.681919
-0.093804 0.019594 0.693319
-0.017103 -0.280982 0.542157
-0.050901 -0.207531 0.572883
0.020033 -0.113135 0.638829
0.007005 -0.037844 0.675308
-0.091876 0.023962 0.684838
-0.010384 -0.275802 0.536199
-0.021710 -0.197500 0.574630
0.026819 -0.108222 0.632845
0.008781 -0.033898 0.667595
-0.098950 0.026707 0.674100
-0.003649 -0.270643 0.530266
-0.044787 -0.198960 0.558099
0.033621 -0.103310 0.626889
0.015633 -0.029068 0.661542
-0.098362 0.030602 0.665735
0.008282 -0.263768 0.525145
-0.030257 -0.191694 0.553654
0.035671 -0.098850 0.618223
0.013910 -0.025234 0.651570
-0.102579 0.034312 0.654687
0.017394 -0.258321 0.520703
-0.029760 -0.188241 0.545944
0.036127 -0.095448 0.610660
0.016894 -0.021339 0.644805
-0.112226 0.036439 0.643577
0.013093 -0.255865 0.510739
-0.025389 -0.183719 0.539053
0.035475 -0.092015 0.602148
0.013716 -0.018256 0.635422
-0.109014 0.040725 0.635993
0.022490 -0.249904 0.505318
-0.014659 -0.177604 0.533912
0.038732 -0.087596 0.594434
0.020779 -0.013189 0.628911
-0.115797 0.043818 0.624577
0.019602 -0.246872 0.495290
-0.012602 -0.173359 0.525644
0.045763 -0.082468 0.588052
0.011486 -0.010867 0.616854
-0.123811 0.046747 0.612707
0.026581 -0.241518 0.488985
-0.006796 -0.168334 0.518748
0.046566 -0.078531 0.579481
-0.019167 -0.012059 0.597399
-0.124181 0.050786 0.603311
0.028402 -0.237879 0.481845
-0.002476 -0.164120 0.512448
0.044635 -0.075613 0.571031
-0.044991 -0.012892 0.580575
-0.123533 0.054435 0.595400
0.029280 -0.233984 0.473215
0.013278 -0.157039 0.509288
0.036751 -0.073301 0.559299
-0.076775 -0.014125 0.560394
0.025143 -0.231497 0.463192
0.015288 -0.153113 0.501600
0.020039 -0.072848 0.544865
-0.026954 -0.002357 0.569237
0.010132 -0.231292 0.448321
0.027356 -0.146855 0.497146
-0.000232 -0.072777 0.528470
-0.001294 -0.230459 0.435333
0.033117 -0.142178 0.490899
0.014300 -0.066549 0.525331
0.019314 -0.222032 0.434375
0.036564 -0.137749 0.483220
0.022754 -0.061214 0.519431
0.017886 -0.218682 0.424732
0.038803 -0.133577 0.475075
0.021272 -0.057690 0.509850
-0.135930 -0.004094 0.493962
0.025991 -0.213646 0.420026
0.043247 -0.129455 0.468911
0.023262 -0.054041 0.502685
-0.140105 -0.001237 0.484178
0.034540 -0.207819 0.413818
0.045675 -0.125026 0.460273
0.025709 -0.049581 0.493987
-0.131277 0.004415 0.477344
0.036709 -0.203924 0.406185
0.047841 -0.121131 0.452658
0.024165 -0.046323 0.484900
-0.126488 0.008917 0.470232
0.039049 -0.199761 0.398048
0.052638 -0.116485 0.445515
0.017834 -0.043661 0.473380
-0.124022 0.013295 0.461674
0.041264 -0.195866 0.390422
0.052388 -0.113104 0.436934
0.026271 -0.038656 0.468089
-0.115442 0.018341 0.455993
0.038777 -0.192794 0.380275
0.051084 -0.109682 0.427343
0.026200 -0.034905 0.458945
-0.109184 0.023274 0.448871
0.006771 -0.196689 0.358943
0.037217 -0.109209 0.413792
0.029566 -0.031051 0.452273
-0.106967 0.027077 0.441417
-0.007809 -0.196226 0.343584
0.037210 -0.105520 0.404648
0.022123 -0.028574 0.440197
-0.105651 0.031249 0.432430
0.017655 -0.187244 0.345606
0.039527 -0.101635 0.397010
0.018271 -0.025707 0.430064
-0.103226 0.035319 0.424452
0.027462 -0.181478 0.340516
0.029765 -0.099836 0.383819
0.018319 -0.021935 0.420876
-0.095634 0.040396 0.417878
0.028619 -0.177840 0.332345
0.012535 -0.099692 0.368036
0.020704 -0.018020 0.413189
-0.098139 0.043736 0.407980
0.032389 -0.173411 0.324707
0.010211 -0.096434 0.357784
0.023274 -0.013837 0.404995
-0.079316 0.050395 0.405832
0.036185 -0.168991 0.317081
-0.010430 -0.096651 0.339804
0.027104 -0.009449 0.397308
-0.072910 0.055236 0.398859
0.036202 -0.165620 0.308392
-0.036067 -0.097997 0.320172
0.008616 -0.008986 0.381047
-0.066654 0.059789 0.392439
0.040212 -0.160934 0.300271
-0.025875 -0.092108 0.314445
-0.007019 -0.007537 0.364677
-0.064997 0.064198 0.382999
0.040114 -0.157841 0.292087
-0.028385 -0.089323 0.305091
-0.062473 -0.013251 0.333414
-0.061350 0.068103 0.376137
0.040379 -0.154193 0.282882
-0.025643 -0.085078 0.296784
-0.001929 0.000346 0.349188
-0.079619 0.069501 0.359185
0.040500 -0.150822 0.274179
-0.021830 -0.080896 0.289528
-0.085636 0.072358 0.347725
0.038409 -0.147677 0.263876
-0.020256 -0.076887 0.280706
-0.088964 0.075842 0.336719
0.038586 -0.144295 0.255156
-0.016396 -0.072715 0.273468
-0.088729 0.079552 0.327752
0.015886 -0.145611 0.236028
-0.008871 -0.067895 0.267851
-0.082299 0.084084 0.321351
-0.122974 -0.257530 0.117719
0.010292 -0.143165 0.223978
-0.007221 -0.063897 0.259051
-0.078133 0.088565 0.313413
0.026711 -0.219750 0.178568
0.003536 -0.140935 0.211342
-0.009187 -0.060557 0.248620
-0.075174 0.092871 0.304967
0.037934 -0.213707 0.174377
0.018466 -0.134316 0.208683
-0.012329 -0.057422 0.237628
-0.072187 0.097167 0.296527
0.051366 -0.207408 0.171877
-0.009562 -0.053486 0.229875
-0.086583 0.098975 0.281252
0.067184 -0.200615 0.170580
-0.010406 -0.050187 0.220474
-0.225046 0.085019 0.212480
0.076055 -0.195188 0.165393
-0.156585 -0.158827 0.098735
-0.019498 -0.048081 0.206664
-0.549669 0.048145 0.061629
0.073249 -0.192156 0.153960
-0.071742 -0.138057 0.128202
-0.019890 -0.044216 0.196184
-0.671037 0.037745 -0.003160
-0.137287 0.187113 0.272623
0.075852 -0.188600 0.146917
-0.057046 -0.131983 0.126550
-0.001509 -0.037844 0.196209
-0.349153 0.081638 0.128009
-0.119691 0.192416 0.271412
0.077478 -0.185034 0.138793
-0.043349 -0.125889 0.123858
-0.153697 0.109592 0.204346
-0.110527 0.197102 0.266032
0.099267 -0.177059 0.140635
-0.035625 -0.120986 0.118344
-0.131069 0.116087 0.204945
-0.081643 0.203700 0.269200
0.102298 -0.172999 0.132650
-0.032463 -0.116763 0.110022
-0.121692 0.121195 0.199099
-0.073499 0.208489 0.262875
0.105355 -0.168950 0.124672
-0.028081 -0.112303 0.102288
-0.113522 0.126128 0.192740
-0.070254 0.212785 0.254429
0.111788 -0.164398 0.118983
-0.026263 -0.108582 0.093917
-0.860340 -0.163267 -0.260750
-0.112863 0.129900 0.183632
-0.070873 0.216444 0.244894
0.085386 -0.166720 0.096089
-0.031360 -0.105951 0.081505
-0.837087 -0.154799 -0.261860
-0.115623 0.133527 0.172322
-0.068800 0.220627 0.235912
-0.208099 0.291457 0.217591
0.055528 -0.169721 0.071254
-0.039985 -0.103978 0.067290
-0.813836 -0.146392 -0.262868
-0.114690 0.137587 0.162661
-0.063022 0.225138 0.228569
-0.221898 0.294736 0.201314
0.013570 -0.175702 0.041260
-0.043035 -0.101419 0.057033
-0.783909 -0.137523 -0.259003
-0.110503 0.141503 0.155750
-0.087038 0.226402 0.209112
-0.202809 0.299730 0.200590
-0.412502 -0.360229 -0.238496
-0.030228 -0.181530 0.008833
-0.045634 -0.098295 0.045713
-0.760677 -0.129229 -0.259792
-0.104652 0.146117 0.148348
-0.106884 0.228622 0.190135
-0.194364 0.304519 0.193981
-0.391544 -0.351699 -0.237871
-0.057659 -0.184047 -0.014774
-0.047220 -0.095211 0.035492
-0.735316 -0.120935 -0.258674
-0.833756 -0.033795 -0.253754
-0.106283 0.149611 0.138097
-0.114654 0.231695 0.177142
-0.184896 0.309082 0.188493
-0.380831 -0.345379 -0.243318
-0.088319 -0.186966 -0.040873
-0.049746 -0.092067 0.024133
-0.714490 -0.113135 -0.260440
-0.817516 -0.026910 -0.258238
-0.095528 0.154750 0.132994
-0.106281 0.236464 0.170824
-0.172733 0.314067 0.183594
-0.359878 -0.336931 -0.242537
-0.092111 -0.184428 -0.052473
-0.050081 -0.088758 0.014483
-0.695119 -0.105900 -0.262084
-0.790698 -0.018935 -0.256766
-0.083770 0.159724 0.129034
-0.106653 0.240194 0.161146
-0.166921 0.318363 0.176536
-0.344503 -0.329593 -0.245368
-0.097992 -0.182085 -0.065864
-0.047803 -0.084729 0.005516
-0.681456 -0.099322 -0.267251
-0.767240 -0.011175 -0.257573
-0.077839 0.164277 0.121720
-0.115303 0.243483 0.146976
-0.160865 0.322926 0.168956
-0.319843 -0.320118 -0.243100
-0.075718 -0.173914 -0.064416
-0.052586 -0.081995 -0.007107
-0.653480 -0.090536 -0.265167
-0.748593 -0.004104 -0.260630
-0.075514 0.168440 0.112689
-0.127554 0.246494 0.131054
-0.156011 0.327396 0.160840
-0.306785 -0.313396 -0.247043
-0.031227 -0.161211 -0.051039
-0.343017 -0.130832 -0.168043
-0.636236 -0.083485 -0.268379
-0.699950 0.006851 -0.248811
-0.064701 0.173496 0.107730
-0.115419 0.251551 0.126460
-0.138895 0.332597 0.158325
-0.290483 -0.306202 -0.248469
-0.024415 -0.156556 -0.056952
-0.511596 -0.157430 -0.266400
-0.613304 -0.075880 -0.267883
-0.289662 0.064414 -0.056541
-0.068588 0.176723 0.096330
-0.115654 0.255312 0.116725
-0.796809 0.298168 -0.153419
-0.161319 -0.366776 -0.236075
-0.253365 -0.294249 -0.238354
-0.018755 -0.152157 -0.063467
-0.475976 -0.147245 -0.258605
-0.591569 -0.068501 -0.267898
-0.143573 0.087034 0.006158
-0.072438 0.179960 0.084907
-0.114643 0.259166 0.107556
-0.145265 -0.359479 -0.237002
-0.227841 -0.285021 -0.234479
-0.016576 -0.148468 -0.071859
-0.459227 -0.140472 -0.260589
-0.576965 -0.062253 -0.271485
-0.129324 0.092491 0.003491
-0.077453 0.183084 0.072867
-0.116031 0.262835 0.097224
-0.127834 -0.351648 -0.237745
-0.210178 -0.277416 -0.235543
-0.001329 -0.141932 -0.073796
-0.448102 -0.134470 -0.266205
-0.547864 -0.053579 -0.268255
-0.126788 0.096684 -0.005683
-0.076181 0.187123 0.063230
-0.111094 0.267265 0.089252
-0.116113 -0.345307 -0.241689
-0.194821 -0.270376 -0.237819
0.005771 -0.137060 -0.080121
-0.427566 -0.126845 -0.266765
-0.527077 -0.046210 -0.269211
-0.118255 0.101627 -0.011825
-0.076079 0.191039 0.052996
-0.108552 0.271499 0.080123
-0.092078 -0.336098 -0.237822
-0.176250 -0.262863 -0.237545
0.011501 -0.132713 -0.086550
-0.402598 -0.118756 -0.264142
-0.511293 -0.039910 -0.271958
-0.121867 0.104783 -0.023489
-0.073774 0.194913 0.044474
-0.132814 0.273431 0.058618
-0.079450 -0.329819 -0.240456
-0.155382 -0.254878 -0.235892
0.023055 -0.127215 -0.089748
-0.383510 -0.111738 -0.264574
-0.484867 -0.032068 -0.269044
-0.108763 0.110013 -0.026616
-0.069045 0.199034 0.037159
-0.120766 0.278138 0.054687
-0.061128 -0.322132 -0.239726
-0.141422 -0.248496 -0.238077
0.023010 -0.124039 -0.099347
-0.358573 -0.103752 -0.261752
-0.473813 -0.026549 -0.274139
-0.095655 0.115214 -0.029694
-0.060699 0.203494 0.031666
-0.068899 0.285753 0.070357
-0.023021 -0.309121 -0.228650
-0.124678 -0.241055 -0.239957
0.023461 -0.120319 -0.109977
-0.338985 -0.096229 -0.263148
-0.448059 -0.018369 -0.272834
-0.086817 0.120363 -0.036245
-0.065031 0.207215 0.018481
-0.084115 0.288908 0.051858
-0.005868 -0.301824 -0.228388
-0.092365 -0.230665 -0.231476
0.018849 -0.118047 -0.122191
-0.323425 -0.089940 -0.265244
-0.436995 -0.012912 -0.277811
-0.086755 0.123939 -0.046044
-0.070992 0.210288 0.005709
-0.104559 0.291200 0.031938
0.055899 -0.374011 -0.249117
-0.011163 -0.299912 -0.241984
-0.077029 -0.223861 -0.233305
0.006416 -0.117061 -0.139516
-0.305270 -0.082992 -0.266557
-0.376221 -0.000066 -0.256732
-0.082860 0.128225 -0.054516
-0.070693 0.214214 -0.004569
-0.284597 0.282588 -0.068606
0.076203 -0.365594 -0.246457
-0.004192 -0.295175 -0.247693
-0.092835 -0.224159 -0.252490
0.003048 -0.114523 -0.151155
-0.286215 -0.076188 -0.266588
-0.361659 0.005793 -0.259605
-0.080370 0.132079 -0.063071
-0.076572 0.217317 -0.017399
-0.702283 0.257707 -0.289079
-0.824641 0.349718 -0.298912
0.092015 -0.358451 -0.246450
0.010717 -0.288515 -0.248646
-0.060565 -0.213903 -0.243734
-0.076457 -0.126649 -0.206243
-0.268330 -0.069621 -0.267186
-0.340048 0.012617 -0.258588
-0.077854 0.135943 -0.071627
-0.075255 0.221089 -0.026562
-0.696705 0.262537 -0.297841
-0.798400 0.355577 -0.297849
0.104705 -0.351987 -0.248937
0.020213 -0.282996 -0.253443
-0.061200 -0.210676 -0.254787
-0.089794 -0.125715 -0.224575
-0.249026 -0.062613 -0.267615
-0.333432 0.017540 -0.266385
-0.064423 0.141297 -0.075026
-0.077232 0.224820 -0.038116
-0.674028 0.268806 -0.298673
-0.785137 0.361136 -0.303894
0.120515 -0.344906 -0.248809
0.041897 -0.274733 -0.250201
-0.051782 -0.205486 -0.259276
-0.107922 -0.125889 -0.245104
-0.232315 -0.056323 -0.268721
-0.309486 0.024620 -0.263934
-0.059504 0.145408 -0.082282
-0.098449 0.226567 -0.059135
-0.650460 0.274777 -0.298175
-0.745671 0.367447 -0.296019
0.138550 -0.337259 -0.247231
0.060182 -0.267344 -0.248919
-0.018428 -0.195137 -0.249551
-0.105275 -0.122096 -0.253736
-0.210964 -0.049293 -0.267130
-0.296094 0.030180 -0.267202
-0.054562 0.149509 -0.089525
-0.095828 0.230483 -0.067737
-0.622123 0.281005 -0.295117
-0.720689 0.373079 -0.295225
-0.831181 0.468543 -0.299341
0.153469 -0.330292 -0.248153
0.070815 -0.261651 -0.252871
-0.008766 -0.189741 -0.254433
-0.086258 -0.114995 -0.253533
-0.189366 -0.042037 -0.265994
-0.270736 0.037600 -0.264481
-0.049348 0.153877 -0.097277
-0.092923 0.234665 -0.076868
-0.603072 0.286884 -0.297496
-0.697825 0.378885 -0.296165
-0.806875 0.474093 -0.300141
0.155032 -0.326942 -0.257385
0.089332 -0.254066 -0.251956
0.010003 -0.182424 -0.253832
-0.071842 -0.108798 -0.255933
-0.165464 -0.034463 -0.263440
-0.247733 0.044650 -0.262955
-0.057053 0.156806 -0.112084
-0.093545 0.238540 -0.087891
-0.570902 0.293533 -0.292960
-0.671371 0.384774 -0.295179
-0.784994 0.479540 -0.302029
0.185526 -0.315873 -0.248410
0.105594 -0.247078 -0.252344
0.029897 -0.174901 -0.252467
-0.051691 -0.101553 -0.254900
-0.154303 -0.028975 -0.268099
-0.230581 0.050868 -0.264602
-0.057652 0.160516 -0.123062
-0.104783 0.241520 -0.104640
-0.554257 0.299155 -0.296389
-0.653330 0.390293 -0.298363
-0.758302 0.485007 -0.301415
0.271865 -0.377793 -0.248413
0.201309 -0.308967 -0.247953
0.124971 -0.239565 -0.250083
0.041589 -0.169372 -0.255309
-0.029521 -0.094214 -0.251907
-0.151487 -0.025091 -0.276847
-0.217197 0.056274 -0.267600
-0.057299 0.164102 -0.132882
-0.104397 0.245240 -0.114545
-0.530767 0.304859 -0.295392
-0.628409 0.395709 -0.297160
0.285223 -0.371349 -0.249065
0.217086 -0.302091 -0.247434
0.138731 -0.233440 -0.251229
0.062348 -0.161962 -0.252598
-0.017660 -0.088819 -0.254939
-0.122102 -0.017002 -0.270175
-0.194500 0.062903 -0.265265
-0.062780 0.167052 -0.145965
-0.101617 0.249166 -0.123178
-0.509670 0.310367 -0.295554
-0.604704 0.401032 -0.296474
0.302101 -0.363734 -0.247984
0.237527 -0.293829 -0.244495
0.153855 -0.226821 -0.252110
0.077686 -0.155518 -0.253760
0.002458 -0.081718 -0.253662
-0.100554 -0.009973 -0.268620
-0.175038 0.069305 -0.265365
-0.064437 0.170659 -0.157647
-0.118598 0.251726 -0.143272
-0.483539 0.316420 -0.293694
-0.584295 0.406490 -0.298162
0.311312 -0.358390 -0.251861
0.245780 -0.288834 -0.249283
0.166741 -0.220768 -0.254335
0.094151 -0.148879 -0.254163
0.018001 -0.075490 -0.255041
-0.084776 -0.003889 -0.270349
-0.153263 0.075955 -0.264050
-0.066052 0.174287 -0.169348
-0.147279 0.253370 -0.169921
-0.459803 0.322268 -0.292987
-0.556735 0.412132 -0.296014
0.329274 -0.350517 -0.249931
0.265098 -0.280941 -0.246910
0.186330 -0.213163 -0.252275
0.111741 -0.142034 -0.253801
0.034681 -0.069087 -0.255666
-0.066701 0.002514 -0.270655
-0.134981 0.082111 -0.264646
-0.083983 0.176209 -0.190295
-0.142906 0.257727 -0.178551
-0.442005 0.327746 -0.295369
-0.538731 0.417424 -0.298763
0.334749 -0.346653 -0.254962
0.278400 -0.275042 -0.247090
0.200947 -0.207151 -0.251992
0.128812 -0.135755 -0.252372
0.049696 -0.063465 -0.255895
-0.046873 0.008681 -0.268474
-0.113781 0.088113 -0.262081
-0.097711 0.178110 -0.207631
-0.157864 0.260030 -0.196518
-0.417710 0.332946 -0.292667
-0.510635 0.422357 -0.294570
0.360329 -0.336643 -0.247827
0.282261 -0.271259 -0.254625
0.216056 -0.200676 -0.252619
0.146384 -0.128993 -0.251861
0.066365 -0.057135 -0.256385
-0.029965 0.014826 -0.269309
-0.092051 0.094629 -0.260496
-0.172604 0.174287 -0.261326
-0.235592 0.258036 -0.250979
-0.395204 0.338578 -0.292309
