-0.527483 -0.138438 0.260862
-0.472722 -0.194327 0.276559
-0.491013 -0.196123 0.273375
-0.504713 -0.139297 0.266143
-0.474503 -0.196948 0.275502
-0.474740 -0.216219 0.274918
-0.490986 -0.139299 0.270289
-0.172397 -0.146633 0.290469
-0.169582 -0.142013 0.281204
-0.172191 -0.176262 0.281464
0.179014 -0.161861 0.259910
0.179029 -0.161943 0.278803
0.178151 -0.133283 0.298069
0.481693 -0.169681 0.285725
0.500555 -0.185431 0.269529
0.445941 -0.162903 0.293802
0.451087 -0.118859 0.297565
0.516021 -0.195159 0.250650
0.514905 -0.204668 0.246428
0.506666 -0.163914 0.276194
0.538931 -0.198870 0.229915
0.555759 -0.170277 0.246591
0.564916 -0.163688 0.247782
-0.576257 -0.131409 0.243915
-0.566057 -0.128665 0.249579
-0.563143 -0.162001 0.248745
-0.545874 -0.137897 0.253701
-0.529885 -0.121890 0.259703
-0.558903 -0.097672 0.252957
-0.512605 -0.152671 0.263248
-0.507272 -0.122254 0.266199
-0.554386 -0.072392 0.254370
-0.493956 -0.159423 0.269598
-0.502793 -0.118124 0.267246
-0.505822 -0.119667 0.266478
-0.451586 -0.123727 0.279928
-0.458604 -0.141773 0.277028
-0.450786 -0.125176 0.279972
-0.201295 -0.110077 0.264223
-0.177047 -0.124480 0.315774
-0.168214 -0.136435 0.306794
-0.204058 -0.110082 0.278886
-0.173836 -0.133383 0.254833
0.177740 -0.123162 0.242539
0.175067 -0.130978 0.263313
0.174750 -0.128878 0.262638
0.256274 -0.083911 0.309609
0.183046 -0.108522 0.295214
0.451937 -0.104315 0.298255
0.493515 -0.107919 0.288768
0.462113 -0.130186 0.294928
0.479612 -0.089816 0.292727
0.514422 -0.137970 0.280114
0.480895 -0.149724 0.288545
0.506180 -0.114893 0.285238
0.556519 -0.130412 0.262774
0.531634 -0.148842 0.270617
0.545428 -0.115558 0.269709
0.585526 -0.137136 0.241990
0.550868 -0.149550 0.263338
0.592861 -0.129195 0.239720
0.580429 -0.093328 0.251038
-0.585930 -0.069061 0.243776
-0.592068 -0.070941 0.241670
-0.583441 -0.078229 0.245332
-0.524024 -0.085287 0.262880
-0.570279 -0.101869 0.248150
-0.561760 -0.082255 0.251673
-0.509576 -0.098683 0.268099
-0.511958 -0.088370 0.265611
-0.511421 -0.038029 0.268832
-0.472440 -0.116244 0.274113
-0.469470 -0.096000 0.277465
-0.484966 -0.041001 0.279590
-0.492730 -0.082287 0.272635
-0.471877 -0.104078 0.275702
-0.470129 -0.093111 0.278424
-0.299483 -0.042927 0.290082
-0.292171 -0.054130 0.293965
-0.259283 -0.082242 0.307097
-0.327328 -0.004342 0.268158
-0.268303 -0.061502 0.271171
-0.268307 -0.067660 0.302574
-0.262348 -0.080796 0.317451
-0.239166 -0.088004 0.244328
-0.226007 -0.092323 0.267069
0.179988 -0.119171 0.253016
0.243886 -0.087958 0.294693
0.276018 -0.073219 0.243949
0.270092 -0.075901 0.246263
0.272307 -0.079343 0.270239
0.286887 -0.061388 0.231678
0.299133 -0.049460 0.274692
0.287974 -0.072862 0.277664
0.483873 -0.080400 0.289182
0.500548 -0.099143 0.287330
0.472337 -0.072457 0.291908
0.465629 -0.058051 0.291604
0.521237 -0.070906 0.277463
0.500641 -0.076174 0.285432
0.483897 -0.080118 0.289213
0.539566 -0.089741 0.271874
0.533738 -0.077653 0.274014
0.539093 -0.039434 0.267168
0.601049 -0.118114 0.237157
0.566683 -0.123036 0.257355
0.539064 -0.062298 0.268455
0.571302 -0.034189 0.252684
0.605049 -0.076359 0.237167
-0.579936 -0.027508 0.246660
-0.575525 -0.042636 0.248809
-0.543682 -0.012445 0.260134
-0.515479 -0.046224 0.267805
-0.516483 -0.032796 0.268380
-0.503492 -0.006569 0.273377
-0.559947 -0.010843 0.253058
-0.488655 -0.053611 0.276516
-0.503125 -0.054571 0.272726
-0.502953 -0.000808 0.274330
-0.480898 -0.058571 0.278286
-0.440296 -0.024821 0.295653
-0.483629 -0.025295 0.281117
-0.319829 -0.023790 0.289922
-0.320411 -0.011965 0.288755
-0.328366 -0.005732 0.266332
0.300119 -0.051254 0.252126
0.307521 -0.048400 0.258015
0.320770 0.018152 0.245623
0.483646 -0.051397 0.286886
0.495206 -0.037122 0.281365
0.453775 -0.015452 0.287431
0.479089 -0.014387 0.284049
0.516537 -0.029391 0.273589
0.508166 -0.066274 0.283013
0.513515 -0.014491 0.274755
0.547702 -0.036267 0.262214
0.510211 -0.036408 0.277131
0.503522 -0.047849 0.280493
0.582863 -0.036329 0.246792
0.581028 -0.028938 0.247931
0.551440 -0.053757 0.262853
0.569261 -0.064345 0.255575
-0.547703 0.015184 0.258961
-0.576344 0.007471 0.249039
-0.569027 -0.000943 0.250172
-0.506029 -0.022496 0.272260
-0.517862 0.035826 0.269875
-0.530307 0.028691 0.262944
-0.477450 -0.005845 0.284806
-0.500662 0.002938 0.274939
-0.509995 0.008821 0.271248
-0.459102 0.020478 0.290450
-0.444776 -0.012732 0.297913
-0.446377 0.015085 0.295460
-0.339581 0.023850 0.276008
-0.315208 0.045624 0.274483
0.354139 0.035176 0.301732
0.350939 -0.003385 0.283416
0.328870 0.033116 0.285346
0.481830 0.001701 0.280805
0.451063 0.002308 0.287893
0.415031 0.032798 0.294518
0.437815 0.023690 0.290170
0.513430 0.002964 0.271668
0.465331 0.018610 0.283440
0.477639 0.036373 0.280143
0.534862 -0.027793 0.265237
0.514509 0.008202 0.269854
0.516911 0.043885 0.267288
0.540116 0.031697 0.261553
0.551244 -0.010448 0.259749
-0.540801 0.078969 0.255209
-0.569437 0.084461 0.244462
-0.539612 0.031006 0.259392
-0.510093 0.072116 0.265363
-0.507316 0.083066 0.265878
-0.529098 0.071956 0.260443
-0.484758 0.033055 0.280422
-0.509133 0.051588 0.268219
-0.466128 0.093451 0.276481
-0.450336 0.023706 0.293567
-0.422892 0.017236 0.301883
-0.446411 0.036510 0.294128
-0.315203 0.045534 0.235201
-0.321612 0.019876 0.238930
-0.315338 0.051388 0.240134
-0.286240 0.065065 0.249274
-0.304961 0.076631 0.294791
-0.164745 0.065738 0.269419
-0.177999 0.075555 0.304493
-0.214396 0.085484 0.300957
-0.205891 0.072051 0.282013
-0.142724 0.062071 0.280214
-0.182237 0.071230 0.274298
-0.183490 0.066417 0.284584
-0.104316 0.062600 0.274771
-0.129196 0.062914 0.251482
-0.110018 0.061224 0.311387
-0.093773 0.080724 0.273859
-0.091436 0.088226 0.279282
0.115903 0.053695 0.285474
0.117140 0.056554 0.279653
0.133217 0.052631 0.289194
0.109119 0.062753 0.270451
0.115056 0.052138 0.269238
0.188115 0.063932 0.236444
0.171727 0.070986 0.293930
0.147625 0.059518 0.259041
0.192438 0.065771 0.259918
0.193894 0.077478 0.303181
0.258746 0.069933 0.281020
0.286513 0.062144 0.296356
0.294267 0.053411 0.229702
0.272992 0.060869 0.241584
0.305636 0.043046 0.233707
0.330450 0.021497 0.288228
0.458036 0.040692 0.285330
0.462778 0.082431 0.283843
0.444963 0.036410 0.288314
0.431980 0.109377 0.286983
0.524450 0.027944 0.267396
0.456726 0.052713 0.285495
0.521872 0.069922 0.267860
0.547189 0.061668 0.258956
0.520061 0.048382 0.267148
0.525597 0.064450 0.266614
0.549826 0.092388 0.255632
0.555772 0.055117 0.255938
-0.517634 0.105451 0.260737
-0.539941 0.109823 0.252895
-0.531952 0.106564 0.257363
-0.503857 0.087393 0.264721
-0.511032 0.074682 0.266027
-0.493368 0.147762 0.259461
-0.471895 0.085372 0.276035
-0.495621 0.089340 0.267367
-0.480166 0.116484 0.267685
-0.435108 0.114038 0.278920
-0.396179 0.060747 0.298762
-0.424259 0.089573 0.286277
-0.437644 0.118942 0.278167
-0.250904 0.065010 0.246622
-0.242686 0.067035 0.265873
-0.247260 0.086719 0.300621
-0.216104 0.067418 0.268280
-0.097714 0.072023 0.270974
-0.080832 0.125234 0.269154
-0.085167 0.111139 0.278827
0.100281 0.083702 0.261659
0.112555 0.071555 0.318201
0.101298 0.075654 0.285429
0.241781 0.075237 0.271663
0.220397 0.083225 0.308972
0.268071 0.067809 0.249411
0.271951 0.064198 0.286838
0.259586 0.064882 0.277829
0.442051 0.155590 0.277828
0.416611 0.099680 0.292615
0.405140 0.078191 0.297134
0.426130 0.076722 0.293888
0.438907 0.111624 0.286873
0.470980 0.095552 0.281737
0.438868 0.119707 0.287806
0.494088 0.114581 0.269787
0.486828 0.116495 0.272703
0.551535 0.078738 0.256823
0.516830 0.093787 0.266707
0.508249 0.104420 0.268562
0.563909 0.091300 0.249937
0.549199 0.094672 0.255382
-0.546443 0.175303 0.240037
-0.544129 0.182887 0.239310
-0.496432 0.173009 0.257391
-0.491580 0.148922 0.259789
-0.480967 0.160294 0.261564
-0.510515 0.188052 0.248594
-0.396374 0.112011 0.288344
-0.414281 0.151738 0.278025
-0.414017 0.191591 0.273000
-0.391619 0.115941 0.289087
-0.397409 0.154450 0.282461
-0.410881 0.151710 0.278822
-0.071823 0.164908 0.262741
-0.076471 0.166558 0.298892
-0.078972 0.153090 0.305201
0.088007 0.127757 0.293610
0.084811 0.134052 0.291688
0.084468 0.154026 0.307222
0.401935 0.135157 0.291416
0.438689 0.120576 0.287871
0.419100 0.121666 0.290085
0.440982 0.164041 0.276951
0.483099 0.141682 0.269056
0.432776 0.113048 0.287787
0.435442 0.188961 0.272303
0.490983 0.133590 0.268252
0.474878 0.151121 0.268996
0.482188 0.138678 0.269802
0.530956 0.131344 0.255476
0.523656 0.137177 0.256219
0.533031 0.122376 0.256267
0.555790 0.124103 0.246024
-0.489890 0.167826 0.259582
-0.488752 0.213668 0.252097
-0.489037 0.173193 0.260075
-0.465125 0.203702 0.259133
-0.507557 0.191203 0.248872
-0.462785 0.210568 0.257767
-0.404372 0.193727 0.277063
-0.446756 0.185407 0.267669
-0.458685 0.195531 0.261684
-0.388922 0.177698 0.282375
-0.379495 0.141484 0.288749
-0.358935 0.177049 0.291358
-0.377573 0.211533 0.282666
-0.385179 0.179654 0.284420
-0.348927 0.204396 0.293172
-0.089046 0.185897 0.311373
-0.059239 0.204234 0.255907
-0.077095 0.167767 0.309984
0.078039 0.167895 0.250234
0.077657 0.170247 0.298079
0.085449 0.188300 0.303162
0.371195 0.217350 0.283516
0.342920 0.233468 0.286116
0.345194 0.189622 0.290487
0.366364 0.178158 0.290405
0.400908 0.168239 0.284541
0.383736 0.209210 0.283252
0.458003 0.194389 0.265234
0.382567 0.190464 0.285231
0.461202 0.176102 0.266852
0.427126 0.156668 0.281218
0.456112 0.182314 0.268052
0.484264 0.153895 0.265876
0.498909 0.153937 0.260682
0.497343 0.183621 0.253824
0.500910 0.172325 0.255755
0.500562 0.174646 0.255105
-0.482047 0.238623 0.248909
-0.480133 0.245193 0.249132
-0.450610 0.228286 0.259548
-0.443378 0.255380 0.257537
-0.426728 0.223592 0.266116
-0.424072 0.262959 0.261013
-0.394897 0.228747 0.271613
-0.383001 0.217300 0.279663
-0.403340 0.256321 0.269961
-0.367333 0.211648 0.285053
-0.328273 0.197791 0.295782
-0.308275 0.226092 0.295328
-0.350629 0.222454 0.289446
-0.334724 0.287562 0.268815
-0.318740 0.207446 0.297936
-0.061861 0.218565 0.300150
-0.061319 0.213993 0.271350
-0.037725 0.240560 0.267047
-0.047062 0.218098 0.286397
-0.049758 0.226050 0.303278
0.062008 0.204037 0.283616
0.039763 0.255235 0.281416
0.049132 0.226051 0.269295
0.018731 0.251678 0.259397
0.060367 0.200186 0.287909
0.055945 0.214263 0.294381
0.310134 0.293834 0.278016
0.313701 0.227715 0.290765
0.312765 0.232460 0.291307
0.372864 0.236019 0.281535
0.325671 0.201372 0.293046
0.384959 0.248937 0.275126
0.365689 0.251070 0.278929
0.380878 0.271709 0.269911
0.427822 0.256782 0.263395
0.372575 0.220289 0.283533
0.393220 0.231252 0.277080
0.449371 0.232141 0.261098
0.461958 0.240496 0.254195
0.452937 0.255391 0.255107
0.461984 0.268549 0.249929
0.496730 0.265625 0.239720
0.461838 0.218850 0.258179
0.483120 0.210974 0.253282
-0.429989 0.309757 0.247281
-0.435034 0.303619 0.246457
-0.463167 0.292422 0.246776
-0.389970 0.304445 0.252935
-0.415446 0.297016 0.259290
-0.396245 0.304327 0.257908
-0.389684 0.303964 0.252944
-0.400195 0.296376 0.259176
-0.347859 0.305783 0.256742
-0.356816 0.263944 0.276969
-0.319016 0.329890 0.249637
-0.303037 0.283407 0.280946
-0.297874 0.271207 0.285563
-0.305936 0.282156 0.278699
-0.319159 0.264485 0.281813
-0.308943 0.335283 0.254568
-0.260056 0.286569 0.291529
-0.282169 0.328579 0.272731
0.003114 0.276899 0.291281
-0.033978 0.281989 0.304387
0.011709 0.259033 0.253222
-0.001225 0.261313 0.254067
0.021638 0.276487 0.291466
0.037214 0.247414 0.285757
0.010851 0.255833 0.271530
0.270715 0.301100 0.280892
0.268817 0.282289 0.286878
0.271915 0.314876 0.277836
0.309336 0.300662 0.274999
0.294545 0.262789 0.287143
0.342346 0.295227 0.270528
0.345517 0.277879 0.276612
0.402818 0.315834 0.242955
0.378004 0.289482 0.264281
0.333728 0.304387 0.270553
0.406485 0.241510 0.271417
0.394563 0.261497 0.270143
0.375235 0.296568 0.259678
0.462846 0.283991 0.244760
0.434819 0.251024 0.260165
0.434880 0.276626 0.255066
0.481437 0.284549 0.243356
0.453458 0.276200 0.252435
-0.443260 0.331854 0.218158
-0.405819 0.318860 0.242586
-0.365730 0.306455 0.257098
-0.358343 0.323401 0.225242
-0.318467 0.336559 0.240112
-0.310895 0.335806 0.248296
-0.325746 0.332820 0.244807
-0.311570 0.316704 0.264779
-0.284398 0.337836 0.268780
-0.266617 0.301290 0.288376
-0.232901 0.326094 0.288510
-0.243675 0.326354 0.287248
-0.253428 0.372091 0.264530
-0.253019 0.356936 0.271468
-0.224085 0.338092 0.287625
-0.195587 0.345025 0.289252
-0.242798 0.315140 0.289150
-0.226198 0.307470 0.294041
0.218857 0.365165 0.273990
0.202032 0.345899 0.282857
0.210589 0.342625 0.283091
0.268717 0.349584 0.265312
0.233353 0.377943 0.267101
0.234111 0.336482 0.278984
0.257367 0.306579 0.283844
0.262121 0.319026 0.278490
0.298904 0.336715 0.253548
0.323996 0.330038 0.246235
0.295827 0.334802 0.264853
0.330205 0.324563 0.247580
0.424553 0.322588 0.235416
0.400761 0.302420 0.250761
0.443360 0.328810 0.227595
0.455638 0.307387 0.239305
0.452816 0.291889 0.245646
-0.298594 0.341409 0.253421
-0.277758 0.346596 0.266317
-0.278115 0.358055 0.262831
-0.260361 0.344890 0.274272
-0.210888 0.373640 0.275659
-0.229438 0.389923 0.266596
-0.216508 0.387788 0.268696
-0.168616 0.363518 0.283803
-0.167892 0.352383 0.287811
-0.167225 0.387288 0.278686
-0.177406 0.370180 0.281495
-0.170618 0.406647 0.273390
-0.125506 0.360519 0.287650
-0.087967 0.361977 0.292740
-0.102559 0.363158 0.289538
-0.150498 0.330072 0.294751
-0.060294 0.402634 0.282233
-0.086152 0.367736 0.293633
-0.058762 0.405743 0.281642
-0.111216 0.341164 0.295793
-0.027145 0.387001 0.287151
-0.050636 0.383815 0.288192
-0.015182 0.378313 0.288280
-0.050920 0.346458 0.297415
0.012785 0.404337 0.278254
0.037036 0.366551 0.286681
-0.021954 0.392355 0.283436
-0.003753 0.361930 0.289981
0.015741 0.391877 0.283230
0.049201 0.384079 0.282934
0.078394 0.370627 0.283675
0.016954 0.373342 0.286304
0.077607 0.351256 0.290270
0.082911 0.355492 0.289790
0.078146 0.415555 0.272231
0.050909 0.378766 0.284441
0.154727 0.351243 0.282409
0.188807 0.378366 0.274116
0.183362 0.377164 0.274633
0.114408 0.335361 0.293890
0.175815 0.353720 0.279908
0.160462 0.339350 0.285371
0.199754 0.369701 0.275104
0.196026 0.351556 0.280783
0.208384 0.394649 0.268375
0.269101 0.361340 0.262203
0.242637 0.379734 0.266067
0.238290 0.356444 0.275789
0.269889 0.373203 0.259749
0.309219 0.341752 0.239527
0.295957 0.358318 0.233532
-0.239622 0.399707 0.260470
-0.248559 0.440784 0.244355
-0.253227 0.421109 0.245890
-0.204084 0.389694 0.272061
-0.226829 0.425599 0.258693
-0.213149 0.409507 0.264747
-0.130914 0.397964 0.277407
-0.188972 0.387337 0.276708
-0.203059 0.442575 0.258181
-0.114438 0.415902 0.273203
-0.123847 0.417155 0.272987
-0.123909 0.414377 0.273200
-0.029959 0.395214 0.283416
-0.086624 0.425271 0.271914
-0.111800 0.420727 0.271456
-0.012549 0.420458 0.275443
-0.029307 0.416840 0.278001
-0.034255 0.431698 0.272261
0.041504 0.426035 0.272338
0.006857 0.412758 0.276439
0.015412 0.393031 0.282573
0.087428 0.405857 0.276324
0.032108 0.405867 0.277315
0.020884 0.445439 0.266124
0.121771 0.425028 0.268815
0.106504 0.427869 0.269518
0.073134 0.418002 0.271967
0.179219 0.402448 0.271249
0.109819 0.400814 0.275558
0.157529 0.413646 0.270525
0.199677 0.383610 0.272003
0.183212 0.400565 0.271277
0.193181 0.426391 0.263686
0.281148 0.376586 0.246905
0.227022 0.421519 0.258336
0.233330 0.406182 0.259476
-0.256846 0.468090 0.219683
-0.247985 0.455258 0.237288
-0.205057 0.418517 0.264860
-0.235794 0.479960 0.234903
-0.216437 0.454493 0.251171
-0.173049 0.461669 0.253292
-0.174661 0.456257 0.255412
-0.179662 0.439407 0.262839
-0.140972 0.441354 0.262934
-0.121330 0.468388 0.253507
-0.126931 0.482119 0.248158
-0.081071 0.430534 0.268246
-0.111950 0.426481 0.267628
-0.107695 0.451358 0.259231
-0.016805 0.430505 0.271560
-0.029346 0.432678 0.272104
-0.060997 0.496723 0.243883
0.040407 0.447340 0.264726
0.007477 0.448389 0.265130
-0.024288 0.471164 0.255996
0.042554 0.461790 0.261397
0.051561 0.480741 0.252730
0.057326 0.479797 0.252180
0.122632 0.427549 0.268115
0.094138 0.446124 0.264205
0.070406 0.489101 0.248901
0.167361 0.440305 0.264302
0.142666 0.463371 0.258097
0.099346 0.483518 0.252279
0.181493 0.445790 0.262878
0.171573 0.444661 0.263211
0.171470 0.452899 0.259989
0.204083 0.464739 0.253777
0.207637 0.465567 0.252888
0.210806 0.446095 0.258256
0.256114 0.432073 0.243565
-0.219982 0.489238 0.235494
-0.185463 0.473336 0.248801
-0.161472 0.470375 0.251766
-0.103729 0.476148 0.251936
-0.083950 0.481100 0.247929
-0.048303 0.506215 0.241080
-0.063817 0.480993 0.250525
-0.064774 0.509199 0.239874
0.002975 0.469907 0.256850
0.029889 0.483987 0.251463
0.005609 0.463107 0.258969
-0.004960 0.500977 0.244950
0.011237 0.537085 0.229191
0.038120 0.483854 0.250670
0.062563 0.469718 0.257693
0.041871 0.463735 0.260424
0.094434 0.506454 0.240260
0.111265 0.496004 0.244707
0.129246 0.456465 0.258579
0.130547 0.434827 0.266428
0.188680 0.474632 0.252439
0.200964 0.489929 0.245057
-0.027720 0.528173 0.234169
-0.016479 0.512310 0.239172
-0.132482 -0.512045 0.290737
-0.158475 -0.504264 0.289445
-0.102301 -0.517511 0.292331
-0.131678 -0.512466 0.290442
-0.147300 -0.467395 0.299119
-0.034783 -0.495022 0.302177
-0.073877 -0.477994 0.304337
-0.058624 -0.513347 0.297396
0.009838 -0.503175 0.300008
-0.041154 -0.495454 0.301423
-0.045685 -0.486441 0.303806
0.037214 -0.525099 0.295926
0.031855 -0.532198 0.292589
-0.006994 -0.509879 0.298352
0.074812 -0.499554 0.299208
0.043445 -0.503515 0.298743
0.050461 -0.505473 0.299205
0.131562 -0.499195 0.295857
0.066314 -0.515169 0.297806
0.115431 -0.503200 0.294984
0.139659 -0.533738 0.284768
0.154740 -0.489650 0.296574
-0.226609 -0.427378 0.296926
-0.264586 -0.441529 0.293256
-0.202896 -0.449766 0.298537
-0.178909 -0.420987 0.300517
-0.189785 -0.451412 0.298814
-0.158169 -0.455577 0.301715
-0.141743 -0.471111 0.299207
-0.141076 -0.426801 0.310620
-0.155070 -0.432604 0.305251
-0.080145 -0.475975 0.306318
-0.140543 -0.447981 0.304692
-0.107540 -0.445542 0.308735
-0.090544 -0.447204 0.310865
-0.084675 -0.484460 0.304045
-0.106894 -0.459396 0.308703
-0.022129 -0.472255 0.306978
-0.019684 -0.491431 0.304940
-0.024591 -0.470325 0.306839
0.006822 -0.491827 0.301791
-0.014331 -0.459521 0.309078
0.001740 -0.452908 0.310338
0.084202 -0.450261 0.309078
0.034050 -0.455844 0.307238
0.065383 -0.468331 0.304844
0.113203 -0.442840 0.309131
0.079486 -0.488331 0.301604
0.123467 -0.448225 0.307839
0.186163 -0.453685 0.303073
0.141620 -0.449700 0.310275
0.124464 -0.439957 0.309934
0.184099 -0.455891 0.304434
0.173691 -0.459231 0.301366
0.172852 -0.493808 0.291773
0.169920 -0.459058 0.302043
0.223304 -0.465789 0.292746
0.223149 -0.430305 0.304788
0.258673 -0.470558 0.286867
-0.290137 -0.400195 0.292010
-0.261666 -0.428197 0.293297
-0.223188 -0.415615 0.300118
-0.221426 -0.421435 0.298462
-0.209971 -0.376277 0.305153
-0.218218 -0.392728 0.300857
-0.217130 -0.383021 0.306919
-0.181677 -0.377408 0.305384
-0.138815 -0.375737 0.314977
-0.199170 -0.391856 0.301367
-0.147060 -0.427313 0.310203
-0.173056 -0.376642 0.302698
-0.115840 -0.374828 0.318881
-0.085161 -0.442539 0.310163
-0.107167 -0.444498 0.309842
-0.099152 -0.361009 0.325006
-0.036631 -0.402767 0.319945
-0.056280 -0.439386 0.312617
-0.052844 -0.430657 0.314706
0.023862 -0.411588 0.315634
0.007132 -0.441362 0.313351
0.013381 -0.406870 0.320116
0.063486 -0.429663 0.310534
0.041150 -0.431148 0.313065
0.048591 -0.425151 0.314520
0.107750 -0.378447 0.313723
0.118971 -0.388598 0.314630
0.126200 -0.407539 0.317716
0.172050 -0.383710 0.308346
0.138970 -0.428645 0.314571
0.160346 -0.379105 0.309405
0.218683 -0.396715 0.313282
0.189284 -0.421359 0.314897
0.172198 -0.372847 0.296294
0.244292 -0.426119 0.297335
0.189361 -0.425446 0.313129
0.196316 -0.393166 0.314401
0.279975 -0.425417 0.289970
0.257168 -0.448216 0.290204
0.267699 -0.383136 0.292722
0.284289 -0.417627 0.291840
-0.309910 -0.377712 0.291116
-0.323328 -0.351627 0.293197
-0.283624 -0.395143 0.294662
-0.289352 -0.384584 0.297773
-0.257640 -0.364988 0.308317
-0.245208 -0.329994 0.304893
-0.232981 -0.357322 0.307341
-0.187571 -0.391513 0.301355
-0.201116 -0.372149 0.293388
-0.157001 -0.388519 0.312152
-0.183165 -0.371843 0.300581
-0.184871 -0.363044 0.293934
-0.158721 -0.396054 0.315916
-0.143772 -0.365477 0.310567
-0.101568 -0.356561 0.314379
-0.095906 -0.368612 0.313457
-0.019237 -0.400417 0.326338
-0.080873 -0.394814 0.312880
-0.070732 -0.340950 0.322269
0.044815 -0.383174 0.321614
0.026430 -0.349752 0.332122
0.015130 -0.337975 0.330237
0.111150 -0.399193 0.318567
0.062785 -0.351801 0.320339
0.052552 -0.325668 0.317911
0.091171 -0.400245 0.315685
0.109295 -0.373456 0.319132
0.164834 -0.368230 0.306381
0.142556 -0.365350 0.313126
0.163408 -0.375964 0.301237
0.159736 -0.380955 0.293328
0.212918 -0.363153 0.304572
0.252662 -0.388780 0.292622
0.193504 -0.355306 0.308033
0.282429 -0.367892 0.296480
0.257873 -0.387479 0.293590
0.243470 -0.369935 0.305148
0.322658 -0.414783 0.292210
0.296630 -0.378797 0.294891
0.295418 -0.376053 0.294642
0.346199 -0.379082 0.290628
-0.364124 -0.364619 0.284570
-0.398244 -0.336404 0.281897
-0.347782 -0.325078 0.297411
-0.324067 -0.356216 0.293054
-0.309548 -0.361661 0.293640
-0.335054 -0.310779 0.301445
-0.258293 -0.355577 0.309292
-0.266536 -0.320405 0.304494
-0.234854 -0.307434 0.299152
-0.229496 -0.322664 0.283900
-0.217728 -0.373523 0.303084
-0.210651 -0.345757 0.285381
-0.116464 -0.371607 0.282543
-0.098362 -0.347751 0.315943
-0.104897 -0.346730 0.297750
-0.090401 -0.346662 0.318841
-0.073491 -0.355966 0.326016
-0.033699 -0.321098 0.332425
-0.033125 -0.358033 0.330556
-0.021532 -0.305226 0.331511
-0.022056 -0.326360 0.333437
-0.058393 -0.346957 0.330252
0.017604 -0.324900 0.330414
0.023516 -0.301229 0.325395
0.054878 -0.326536 0.314756
0.051265 -0.331953 0.320165
0.074306 -0.371978 0.321335
0.067536 -0.319058 0.292816
0.088257 -0.349739 0.306093
0.099312 -0.348635 0.318020
0.087671 -0.355392 0.312469
0.227700 -0.350159 0.296266
0.221989 -0.330629 0.297605
0.229301 -0.320917 0.303505
0.236497 -0.354263 0.293522
0.234119 -0.331433 0.306303
0.336069 -0.364714 0.290590
0.318615 -0.333818 0.297012
0.253940 -0.305287 0.305041
0.372913 -0.366451 0.278876
0.334883 -0.320453 0.295637
0.379367 -0.326326 0.284004
-0.362337 -0.300220 0.299948
-0.404383 -0.298172 0.288780
-0.393319 -0.327762 0.286056
-0.299329 -0.272095 0.308315
-0.348227 -0.281114 0.302735
-0.356153 -0.297122 0.299281
-0.225118 -0.281986 0.294662
-0.265797 -0.274557 0.306666
-0.284699 -0.267194 0.308600
-0.233147 -0.302527 0.298017
-0.249374 -0.280738 0.304581
-0.242675 -0.315791 0.300042
-0.072377 -0.325211 0.313223
-0.071453 -0.330446 0.322806
0.029065 -0.293228 0.324716
0.047690 -0.312996 0.318622
0.028273 -0.286816 0.309009
0.006614 -0.264538 0.282653
0.016813 -0.277493 0.317619
0.241195 -0.278090 0.312757
0.230658 -0.287701 0.311113
0.230214 -0.306560 0.301170
0.241058 -0.292996 0.307320
0.233871 -0.281266 0.316509
0.312110 -0.302446 0.302741
0.268385 -0.295313 0.310380
0.293979 -0.308981 0.305045
0.352691 -0.291607 0.297209
0.355469 -0.323827 0.289804
0.354396 -0.259443 0.305422
0.406983 -0.290061 0.284956
0.350572 -0.281542 0.299627
-0.402815 -0.250742 0.292655
-0.438347 -0.248837 0.282215
-0.385393 -0.297932 0.293498
-0.414326 -0.234422 0.290606
-0.344609 -0.228660 0.306836
-0.407274 -0.220656 0.293343
-0.337561 -0.275530 0.305815
-0.366490 -0.242297 0.302734
-0.328659 -0.219182 0.311171
-0.225498 -0.273665 0.295616
-0.319170 -0.257188 0.309412
-0.282253 -0.266240 0.309630
-0.242271 -0.286754 0.302207
-0.222954 -0.255206 0.300595
-0.226466 -0.263931 0.303446
-0.207644 -0.246307 0.311553
-0.230118 -0.263212 0.299512
0.007769 -0.285904 0.328578
-0.018250 -0.269986 0.281605
0.006810 -0.263923 0.281810
-0.005800 -0.268467 0.294764
0.010844 -0.264447 0.280896
0.011260 -0.275870 0.312017
0.027582 -0.286154 0.318038
0.229925 -0.273491 0.308498
0.224331 -0.257711 0.304865
0.243373 -0.258262 0.317578
0.245620 -0.249537 0.321633
0.231429 -0.295678 0.308457
0.236388 -0.230798 0.324951
0.321785 -0.252213 0.311146
0.280691 -0.250743 0.318186
0.260243 -0.235501 0.325029
0.385116 -0.288312 0.291096
0.369913 -0.271931 0.299830
0.376931 -0.242825 0.304226
0.436812 -0.240813 0.284265
0.385096 -0.288477 0.290507
0.395530 -0.244467 0.296006
0.437854 -0.244353 0.285368
-0.425915 -0.210902 0.289298
-0.443688 -0.209129 0.284665
-0.415321 -0.223461 0.291763
-0.337839 -0.185285 0.311087
-0.403768 -0.226078 0.294631
-0.366539 -0.187148 0.304317
-0.338931 -0.190560 0.309500
-0.349625 -0.232793 0.307381
-0.356958 -0.171706 0.306386
-0.278546 -0.250846 0.312933
-0.318265 -0.212640 0.314503
-0.313752 -0.202772 0.315957
-0.199156 -0.222713 0.320528
-0.246462 -0.212626 0.330327
-0.248924 -0.202816 0.335398
-0.213339 -0.236956 0.311528
-0.191924 -0.214556 0.310070
-0.178140 -0.186686 0.305182
-0.224484 -0.208553 0.328520
-0.210368 -0.205143 0.328438
-0.193246 -0.212578 0.312653
-0.173527 -0.168788 0.276623
0.198545 -0.184341 0.333226
0.200832 -0.185935 0.332624
0.201487 -0.200383 0.326676
0.187822 -0.161821 0.312535
0.199230 -0.192365 0.323507
0.222001 -0.229699 0.312604
0.225899 -0.237776 0.321717
0.193841 -0.171956 0.332578
0.257749 -0.253569 0.319245
0.232903 -0.206730 0.328240
0.220682 -0.230045 0.313718
0.310459 -0.239400 0.314738
0.315658 -0.223910 0.314695
0.269279 -0.184154 0.324229
0.372495 -0.229233 0.307460
0.361727 -0.219611 0.310566
0.375038 -0.181375 0.306669
0.435840 -0.217077 0.288370
0.396944 -0.211522 0.300820
0.421611 -0.189038 0.297614
0.415730 -0.222289 0.294814
0.400366 -0.232827 0.298971
-0.411075 -0.171734 0.290859
-0.427046 -0.158304 0.286002
-0.436077 -0.146405 0.283889
-0.390166 -0.160797 0.298342
-0.380927 -0.132907 0.302444
-0.363534 -0.114890 0.309081
-0.326541 -0.180814 0.315976
-0.344776 -0.152393 0.313846
-0.347576 -0.115727 0.314074
-0.296276 -0.179950 0.323286
-0.348013 -0.154758 0.311849
-0.326929 -0.179024 0.316421
-0.241307 -0.150877 0.333102
-0.241775 -0.172203 0.334065
-0.231530 -0.148151 0.329220
-0.195864 -0.213236 0.315944
-0.175760 -0.137427 0.319247
-0.203761 -0.113378 0.327011
-0.171706 -0.133160 0.314013
-0.170721 -0.165378 0.301307
0.183164 -0.154910 0.314826
0.189517 -0.172654 0.318982
0.212899 -0.121145 0.331890
0.196267 -0.178829 0.334586
0.206177 -0.106168 0.328460
0.301549 -0.159999 0.318266
0.252568 -0.204988 0.327657
0.214606 -0.127293 0.341300
0.338613 -0.208048 0.313931
0.313771 -0.164291 0.314904
0.278319 -0.138489 0.324613
0.392129 -0.205750 0.303214
0.331461 -0.187147 0.312835
0.331374 -0.142390 0.310925
0.418064 -0.183831 0.298015
0.385817 -0.200872 0.304595
0.401201 -0.166522 0.300800
0.428223 -0.142287 0.299086
0.445310 -0.161157 0.293666
-0.412351 -0.074037 0.294447
-0.404449 -0.120225 0.293456
-0.435502 -0.120050 0.284587
-0.368733 -0.082663 0.305129
-0.366286 -0.128662 0.307668
-0.369311 -0.073941 0.307039
-0.323835 -0.087845 0.313547
-0.360027 -0.132128 0.310794
-0.339396 -0.108204 0.316971
-0.288258 -0.138439 0.327865
-0.312164 -0.091037 0.319504
-0.321340 -0.108819 0.322120
-0.237620 -0.105796 0.315627
-0.269651 -0.076891 0.318074
-0.241960 -0.107502 0.322041
-0.234437 -0.112713 0.320350
-0.180471 -0.127362 0.322471
-0.172328 -0.135156 0.321271
-0.172766 -0.136889 0.323007
-0.176428 -0.129482 0.317361
0.193461 -0.170847 0.335350
0.192624 -0.119556 0.325684
0.192524 -0.124003 0.329727
0.192556 -0.134736 0.330094
0.214905 -0.103005 0.338613
0.198730 -0.133794 0.332281
0.228479 -0.097720 0.332685
0.273729 -0.082255 0.325108
0.250718 -0.103861 0.323615
0.244890 -0.085760 0.330104
0.264551 -0.090518 0.314334
0.285225 -0.087514 0.323913
0.255773 -0.093943 0.321558
0.267159 -0.080044 0.319184
0.342532 -0.152426 0.309607
0.374614 -0.105528 0.302434
0.348356 -0.065335 0.301508
0.386968 -0.138431 0.303918
0.378287 -0.105904 0.303750
0.389356 -0.136757 0.302820
0.453453 -0.132763 0.297614
0.426928 -0.123504 0.299539
-0.399831 -0.049717 0.302554
-0.449402 -0.058785 0.287242
-0.409746 -0.054676 0.299561
-0.368657 -0.074249 0.306637
-0.364688 -0.043630 0.307207
-0.358103 -0.027956 0.306585
-0.320489 -0.069397 0.314168
-0.343003 -0.085140 0.314587
-0.306266 -0.033967 0.304993
-0.278766 -0.064195 0.308026
-0.296589 -0.059649 0.313228
-0.255641 -0.080900 0.304354
-0.255746 -0.097222 0.317865
-0.271047 -0.077146 0.308033
-0.239984 -0.090039 0.308852
0.236736 -0.085000 0.322782
0.297784 -0.053973 0.293777
0.268403 -0.075748 0.314220
0.240152 -0.094347 0.310763
0.303243 -0.051779 0.308770
0.297422 -0.052983 0.312282
0.309220 -0.044737 0.308384
0.300743 -0.058540 0.314022
0.369776 -0.071198 0.302863
0.325557 -0.070216 0.311739
0.349422 -0.066912 0.302181
0.409982 -0.087175 0.300340
0.367745 -0.105223 0.303534
0.377170 -0.064383 0.302299
0.433508 -0.068440 0.297655
0.418344 -0.104890 0.301160
-0.398149 -0.026774 0.305861
-0.419035 0.002550 0.301755
-0.428162 -0.002022 0.301398
-0.344033 -0.013963 0.301235
-0.378964 0.008898 0.310742
-0.298494 -0.056496 0.310586
-0.354926 -0.018640 0.297322
-0.343461 -0.019769 0.292598
0.332973 -0.031079 0.307321
0.326943 -0.003589 0.302393
0.341138 -0.025584 0.303790
0.330710 -0.040574 0.299862
0.384839 -0.062115 0.302392
0.391785 -0.014061 0.297604
0.380910 -0.015107 0.299772
0.446032 0.008174 0.288361
0.389185 -0.017084 0.297209
-0.385944 0.000115 0.309048
-0.405858 0.032408 0.301362
-0.409121 -0.010472 0.305638
-0.350832 0.022458 0.297261
-0.363545 0.018420 0.295904
-0.348968 -0.000738 0.297126
-0.349148 0.018098 0.302792
0.357945 0.006552 0.299635
0.342557 0.013052 0.278273
0.405409 -0.002586 0.296945
0.363363 -0.003172 0.300200
0.385582 0.001548 0.300690
0.427733 0.033227 0.291448
0.428639 0.031034 0.291690
-0.382912 0.087762 0.294453
-0.398845 0.088800 0.296087
-0.436491 0.056422 0.289348
-0.367618 0.052549 0.303068
-0.370700 0.064266 0.300681
-0.404182 0.063662 0.299853
-0.306688 0.021373 0.299668
-0.296852 0.056489 0.304000
-0.318978 0.076483 0.297142
-0.337158 0.016276 0.300643
-0.308369 0.020418 0.301595
-0.290417 0.076461 0.301541
-0.186562 0.067530 0.323631
-0.232789 0.071936 0.302167
-0.169862 0.063592 0.325672
-0.147938 0.057730 0.299514
-0.098124 0.063134 0.312491
-0.103739 0.062034 0.318700
-0.148870 0.057091 0.334349
-0.098060 0.073426 0.315863
-0.106458 0.058190 0.310455
-0.104111 0.057405 0.308548
0.121060 0.051054 0.304173
0.119522 0.052653 0.307146
0.117751 0.053632 0.320601
0.119678 0.052731 0.286732
0.119488 0.052230 0.305032
0.184363 0.092978 0.324145
0.132664 0.052222 0.319599
0.157790 0.057582 0.292718
0.191880 0.069965 0.321316
0.200276 0.080112 0.308885
0.283107 0.066898 0.304935
0.277895 0.084883 0.303915
0.303773 0.059765 0.306826
0.305808 0.050706 0.306812
0.409683 0.025266 0.293233
0.382757 0.002754 0.298291
0.347570 0.037950 0.306818
0.388910 0.064698 0.300074
0.433098 0.069966 0.291212
-0.415993 0.071322 0.294270
-0.397732 0.074506 0.294882
-0.390130 0.102227 0.293829
-0.386602 0.100962 0.294389
-0.329788 0.079937 0.303708
-0.312708 0.079143 0.291257
-0.362268 0.073970 0.300388
-0.287859 0.081396 0.299820
-0.329107 0.053873 0.304598
-0.287776 0.074897 0.307532
-0.226864 0.080330 0.309863
-0.273516 0.083777 0.305651
-0.272250 0.069721 0.309843
-0.278886 0.054147 0.309455
-0.241147 0.077815 0.296939
-0.237562 0.078937 0.302609
-0.177030 0.082295 0.310533
-0.234062 0.078882 0.312647
-0.160299 0.090868 0.332702
-0.149135 0.064770 0.328240
-0.142213 0.113579 0.337322
-0.153923 0.074350 0.336029
-0.093985 0.084200 0.304529
-0.116536 0.088694 0.336554
-0.102133 0.068309 0.319440
0.114845 0.061334 0.318945
0.115702 0.065496 0.327779
0.099424 0.100427 0.304540
0.144172 0.117292 0.331293
0.133344 0.066005 0.314134
0.144280 0.116010 0.331246
0.133088 0.061953 0.324807
0.188910 0.088474 0.323347
0.189005 0.087236 0.323802
0.275522 0.092413 0.310835
0.233708 0.071555 0.305367
0.229275 0.101941 0.321342
0.192465 0.069720 0.321545
0.260050 0.077504 0.299119
0.284486 0.060516 0.307320
0.277072 0.062447 0.306722
0.361083 0.075759 0.303910
0.333345 0.081135 0.311019
0.302038 0.084489 0.307885
0.357539 0.109641 0.299068
0.400914 0.101923 0.296368
0.381946 0.035337 0.301149
0.392244 0.103207 0.297021
-0.370834 0.170333 0.288513
-0.362443 0.173020 0.290662
-0.388519 0.102243 0.294936
-0.305486 0.156240 0.302997
-0.356662 0.116420 0.295009
-0.336493 0.148983 0.294787
-0.291247 0.079887 0.308257
-0.307009 0.116590 0.301396
-0.289698 0.177896 0.306175
-0.264146 0.137718 0.311713
-0.250487 0.107488 0.310190
-0.266523 0.145060 0.311257
-0.212705 0.144594 0.315103
-0.236032 0.082020 0.306547
-0.219896 0.142848 0.312889
-0.151980 0.113066 0.328473
-0.190328 0.146236 0.319803
-0.158054 0.177745 0.313093
-0.115213 0.100458 0.339395
-0.112113 0.107105 0.338358
-0.105670 0.120432 0.339399
-0.133492 0.147692 0.321352
-0.131049 0.162728 0.318343
-0.080998 0.141105 0.302507
-0.082827 0.131354 0.287541
0.097511 0.130150 0.316267
0.080462 0.173764 0.315363
0.096265 0.146021 0.324622
0.097844 0.134458 0.322267
0.113437 0.120137 0.324157
0.097629 0.148518 0.323794
0.119356 0.141629 0.331396
0.151109 0.112414 0.331077
0.097214 0.151237 0.323133
0.209117 0.098515 0.326200
0.180094 0.125600 0.331334
0.151105 0.157071 0.322144
0.256843 0.132765 0.308937
0.208071 0.099747 0.327443
0.200090 0.120021 0.326636
0.301734 0.105969 0.309548
0.243131 0.127575 0.314274
0.263930 0.141101 0.305999
0.302797 0.085632 0.311263
0.317344 0.087786 0.311199
0.326929 0.145344 0.297577
0.352379 0.111753 0.300270
0.309920 0.092656 0.301243
0.323563 0.139701 0.299149
0.347325 0.143646 0.295631
0.379206 0.110858 0.297365
-0.346953 0.165969 0.294092
-0.333761 0.194731 0.296651
-0.319763 0.187692 0.303157
-0.281660 0.157407 0.307598
-0.282245 0.192460 0.304133
-0.326449 0.187356 0.300212
-0.245711 0.182022 0.308666
-0.252963 0.149428 0.312272
-0.294724 0.230241 0.293344
-0.220246 0.178444 0.312895
-0.208503 0.185673 0.313216
-0.243587 0.186877 0.306892
-0.159771 0.179581 0.313383
-0.158585 0.177022 0.313252
-0.182441 0.187167 0.313104
-0.096340 0.133031 0.324734
-0.078618 0.146709 0.300478
-0.127835 0.163731 0.318735
-0.049518 0.218444 0.295951
-0.071543 0.191819 0.310897
0.084021 0.170566 0.317832
0.064358 0.196283 0.291843
0.068130 0.208683 0.296653
0.180848 0.175261 0.316206
0.128248 0.188368 0.319501
0.096324 0.206430 0.315882
0.183199 0.172940 0.318571
0.148411 0.183817 0.318124
0.177626 0.208841 0.313252
0.238934 0.154912 0.309126
0.222283 0.149263 0.316005
0.216228 0.221787 0.308702
0.292883 0.171591 0.299110
0.271699 0.172172 0.301326
0.257203 0.168273 0.303426
0.339032 0.185363 0.291855
0.291614 0.174714 0.298460
0.309234 0.193205 0.295905
0.338668 0.219666 0.289748
0.350599 0.164999 0.293166
0.319180 0.160018 0.296518
0.370329 0.147985 0.293864
-0.311068 0.250711 0.285100
-0.338123 0.227538 0.291396
-0.321892 0.227054 0.294778
-0.274127 0.258649 0.289464
-0.239655 0.240985 0.300234
-0.242503 0.207368 0.305556
-0.290310 0.269444 0.285879
-0.181212 0.197799 0.315210
-0.205784 0.247485 0.305686
-0.206072 0.243984 0.306152
-0.143621 0.212316 0.310742
-0.189594 0.220345 0.311541
-0.157477 0.265717 0.305981
-0.067324 0.188764 0.311167
-0.076176 0.234747 0.304611
-0.129185 0.261564 0.309112
-0.059605 0.212507 0.304690
-0.046175 0.246108 0.309096
-0.053296 0.229538 0.312992
0.048108 0.229565 0.284462
0.056993 0.224587 0.293253
0.059127 0.237675 0.299068
0.064526 0.225476 0.299471
0.141273 0.238831 0.317363
0.128272 0.205739 0.319155
0.066180 0.212734 0.299882
0.175140 0.220516 0.312469
0.178419 0.245957 0.310892
0.153707 0.247645 0.315179
0.244243 0.225333 0.303213
0.207086 0.216086 0.310209
0.237136 0.258091 0.297885
0.297785 0.232612 0.291940
0.248363 0.222749 0.301018
0.267198 0.211873 0.298247
0.293315 0.263961 0.286722
0.296559 0.220789 0.293481
0.327482 0.197216 0.293750
0.302977 0.234829 0.292275
-0.294640 0.264291 0.287081
-0.269980 0.262234 0.290601
-0.238315 0.239371 0.300413
-0.216033 0.295337 0.298475
-0.200399 0.240613 0.308622
-0.231356 0.314419 0.291894
-0.122543 0.248848 0.305389
-0.183553 0.275881 0.304591
-0.196140 0.309963 0.297943
-0.083922 0.242306 0.313474
-0.115265 0.289674 0.303357
-0.117416 0.286761 0.303114
-0.068238 0.210918 0.308613
-0.040392 0.268882 0.302710
-0.001201 0.252947 0.267139
-0.031117 0.247975 0.280906
-0.018376 0.249311 0.279252
0.035240 0.278742 0.294881
0.035378 0.257519 0.291581
-0.033147 0.263651 0.309152
0.029319 0.256175 0.292532
0.060490 0.268334 0.301672
0.090914 0.272081 0.317630
0.076489 0.244624 0.312027
0.055986 0.277557 0.308345
0.114101 0.281241 0.316308
0.127029 0.279686 0.313115
0.092517 0.278085 0.316980
0.191302 0.243747 0.308897
0.150054 0.269306 0.312779
0.151123 0.300248 0.299493
0.233954 0.269367 0.295647
0.253060 0.285521 0.288699
0.225480 0.290192 0.291235
0.234236 0.273849 0.294438
0.264267 0.247240 0.295647
0.245556 0.278565 0.291841
0.260915 0.249704 0.294743
-0.227691 0.283916 0.298227
-0.189131 0.316189 0.297588
-0.189061 0.317508 0.296615
-0.165368 0.317697 0.295564
-0.143701 0.285236 0.302047
-0.083097 0.323952 0.302139
-0.129966 0.329087 0.297208
-0.159295 0.336446 0.294424
-0.044157 0.302780 0.305156
-0.061014 0.287515 0.310817
-0.090691 0.328859 0.298379
0.002228 0.271477 0.291708
-0.026837 0.305495 0.304286
-0.065224 0.290730 0.309041
-0.032928 0.316757 0.303065
0.052438 0.294237 0.312150
0.061217 0.268215 0.302974
0.043690 0.306426 0.308867
0.099311 0.279799 0.316023
0.085504 0.314756 0.304651
0.087098 0.331848 0.297674
0.124976 0.302697 0.306548
0.151340 0.311565 0.295581
0.149789 0.328736 0.290017
0.157132 0.344247 0.283980
0.149152 0.310018 0.297778
0.190634 0.308774 0.290782
0.165642 0.316966 0.292426
0.230129 0.317181 0.287806
0.197445 0.317398 0.287036
-0.120957 0.327079 0.295898
-0.113854 0.362286 0.290051
-0.092190 0.350545 0.294025
-0.068617 0.360074 0.296967
-0.046891 0.326997 0.300907
-0.042255 0.361415 0.295113
-0.033778 0.347364 0.297730
0.009450 0.308812 0.303516
0.050353 0.304960 0.307250
0.028887 0.353241 0.292238
0.070516 0.342711 0.293428
0.112301 0.355948 0.288885
0.087804 0.332421 0.297072
0.156925 0.346013 0.283661
-0.001492 -0.292632 0.324530
0.035024 -0.309744 0.326109
0.020370 -0.311342 0.334658
0.013102 -0.288071 0.323821
0.010557 -0.283605 0.323530
0.027648 -0.290924 0.317838
0.003703 -0.292460 0.330476
0.026435 -0.291178 0.318956
0.018905 -0.291689 0.322401
0.026939 -0.290395 0.318799
-0.185948 -0.186832 0.329247
-0.201615 -0.164009 0.337474
-0.204108 -0.178965 0.332628
-0.182867 -0.142842 0.332436
-0.177360 -0.125988 0.321622
0.196332 -0.139829 0.342098
-0.106128 0.063929 0.329556
-0.144255 0.072731 0.319525
-0.110008 0.060890 0.329805
0.109551 0.080673 0.326700
0.117083 0.053899 0.325679
0.119405 0.056459 0.316473
-0.146330 0.060658 0.334823
-0.128398 0.089829 0.341313
-0.101745 0.120208 0.327098
-0.126860 0.063677 0.340978
-0.111598 0.065761 0.333516
0.114781 0.076767 0.333014
0.120879 0.062661 0.328995
0.119115 0.063461 0.329373
0.132255 0.104467 0.333636
0.099826 0.131757 0.324543
-0.017838 -0.292591 -0.327330
-0.117742 0.084729 -0.328888
-0.103163 0.095900 -0.325943
-0.108961 0.081237 -0.328461
-0.114537 0.076375 -0.329173
0.115556 0.084230 -0.330119
0.128488 0.089668 -0.336601
0.116989 0.076628 -0.331644
-0.202102 -0.438212 -0.298174
-0.238990 -0.461959 -0.288593
-0.192193 -0.468689 -0.294916
-0.174642 -0.425230 -0.297702
-0.181405 -0.444066 -0.298822
-0.133213 -0.437705 -0.305730
0.041522 -0.468661 -0.302345
0.016595 -0.439957 -0.312219
0.061190 -0.458574 -0.306185
0.056374 -0.490068 -0.298051
0.145254 -0.474469 -0.300099
0.099159 -0.466842 -0.303983
0.183109 -0.451028 -0.303088
0.121710 -0.457605 -0.304407
-0.234161 -0.382110 -0.307340
-0.245612 -0.414772 -0.303576
-0.201015 -0.417538 -0.299868
-0.200984 -0.421078 -0.299634
-0.210896 -0.395337 -0.301964
-0.203141 -0.431055 -0.300746
-0.186845 -0.394846 -0.300443
-0.187917 -0.416247 -0.299212
-0.199974 -0.435461 -0.297436
-0.156248 -0.410143 -0.302367
-0.093885 -0.434242 -0.314135
-0.147782 -0.389024 -0.302693
-0.084165 -0.447554 -0.311172
-0.134676 -0.391018 -0.302663
-0.095072 -0.417251 -0.316281
-0.052297 -0.421993 -0.320788
-0.037623 -0.435139 -0.318406
-0.026839 -0.439045 -0.316838
0.030515 -0.428512 -0.313828
0.004199 -0.429735 -0.316387
-0.011419 -0.430721 -0.316714
0.096414 -0.421417 -0.315741
0.040769 -0.404486 -0.321274
0.074781 -0.420050 -0.318770
0.106224 -0.424486 -0.310448
0.084742 -0.386732 -0.320342
0.138422 -0.442192 -0.305162
0.172776 -0.435046 -0.305686
0.113421 -0.363873 -0.304921
0.164582 -0.407192 -0.310070
0.179661 -0.409516 -0.308589
0.178969 -0.429241 -0.309086
0.188517 -0.392418 -0.302587
0.189477 -0.378063 -0.294639
0.250435 -0.422864 -0.295868
0.207683 -0.418514 -0.304246
0.191048 -0.416661 -0.307385
-0.325755 -0.406094 -0.286208
-0.293931 -0.379061 -0.303708
-0.263156 -0.365140 -0.311115
-0.260789 -0.362538 -0.307133
-0.259234 -0.372277 -0.310807
-0.234861 -0.387560 -0.306132
-0.230305 -0.392717 -0.305180
-0.120914 -0.352306 -0.291822
0.042718 -0.391545 -0.323452
0.033361 -0.404265 -0.321008
0.015145 -0.375579 -0.325565
-0.035347 -0.329654 -0.326606
0.095296 -0.415007 -0.317184
0.068168 -0.380443 -0.324303
0.066460 -0.346222 -0.319941
0.331433 -0.404544 -0.284126
0.263064 -0.414343 -0.295179
0.256351 -0.372960 -0.293219
-0.325923 -0.328579 -0.304244
-0.292179 -0.324733 -0.310373
-0.263291 -0.349263 -0.310897
-0.288419 -0.345040 -0.310666
-0.279555 -0.318253 -0.314212
-0.316923 -0.335071 -0.303666
-0.070152 -0.340681 -0.315022
-0.094743 -0.356729 -0.306138
-0.053073 -0.319657 -0.317527
-0.014189 -0.308447 -0.330732
-0.029755 -0.336299 -0.326139
0.016121 -0.354032 -0.327258
0.043230 -0.357294 -0.326602
0.332373 -0.366195 -0.289650
0.303401 -0.327495 -0.298775
0.248746 -0.331069 -0.290895
0.238514 -0.324921 -0.290320
-0.245523 -0.311216 -0.312619
-0.275436 -0.305492 -0.314462
-0.282190 -0.283786 -0.311582
-0.270751 -0.311511 -0.307451
0.220443 -0.287465 -0.310752
0.247480 -0.294683 -0.302600
0.302492 -0.316743 -0.301001
0.288724 -0.311397 -0.301915
0.237789 -0.288068 -0.312426
0.245769 -0.312725 -0.292762
0.362384 -0.290428 -0.295175
0.353374 -0.282894 -0.300396
-0.282967 -0.261995 -0.316382
-0.247445 -0.246162 -0.315986
-0.313285 -0.270388 -0.311627
-0.285532 -0.270978 -0.313215
0.246904 -0.290932 -0.302354
0.230566 -0.255600 -0.287833
0.292536 -0.252280 -0.313886
0.331539 -0.270212 -0.308110
0.274910 -0.259044 -0.310761
0.274749 -0.257998 -0.312322
0.393926 -0.267621 -0.290852
0.319630 -0.254785 -0.308396
-0.312231 -0.230399 -0.316678
-0.263963 -0.220513 -0.326287
-0.331948 -0.218921 -0.314230
-0.219944 -0.258932 -0.303991
0.208923 -0.209852 -0.317904
0.281566 -0.221618 -0.319517
0.282495 -0.180626 -0.325531
0.236853 -0.213828 -0.313045
0.238316 -0.209588 -0.315555
0.294015 -0.246134 -0.314072
0.317575 -0.213852 -0.317523
0.282673 -0.185082 -0.323847
0.313640 -0.204643 -0.319724
0.355683 -0.203855 -0.309106
0.352493 -0.221369 -0.308416
-0.378764 -0.194459 -0.305270
-0.418740 -0.158358 -0.297698
-0.306779 -0.162512 -0.317049
-0.375220 -0.188805 -0.306792
-0.226755 -0.178630 -0.333229
-0.229215 -0.174593 -0.334338
-0.233285 -0.167344 -0.335463
-0.299303 -0.164171 -0.319137
-0.200906 -0.158457 -0.333524
-0.233565 -0.202738 -0.331134
-0.203769 -0.182008 -0.328633
0.241133 -0.141195 -0.334838
0.187223 -0.167749 -0.327899
0.257334 -0.184758 -0.324867
0.239358 -0.179663 -0.324550
0.252917 -0.142594 -0.335740
0.240678 -0.114423 -0.330964
0.260477 -0.108474 -0.334350
0.325712 -0.206055 -0.316332
0.289146 -0.141418 -0.328191
0.293684 -0.140700 -0.326395
0.359005 -0.205976 -0.308269
0.350162 -0.166894 -0.317511
-0.415032 -0.119907 -0.300186
-0.442384 -0.093946 -0.293482
-0.364464 -0.129329 -0.306953
-0.355644 -0.116268 -0.305755
-0.378104 -0.124220 -0.305000
-0.354303 -0.121788 -0.308850
-0.334860 -0.123843 -0.310578
-0.359310 -0.104138 -0.306059
-0.336319 -0.098727 -0.308812
-0.317465 -0.134553 -0.311676
-0.314121 -0.133080 -0.314475
-0.281198 -0.093591 -0.320108
-0.336986 -0.082934 -0.304393
-0.328102 -0.121410 -0.311321
-0.232223 -0.095069 -0.324416
-0.294938 -0.120938 -0.314824
-0.262650 -0.111984 -0.320431
-0.232185 -0.093211 -0.319521
-0.202556 -0.114962 -0.327901
-0.195137 -0.142817 -0.327629
-0.203877 -0.113854 -0.331430
-0.186970 -0.150221 -0.325903
-0.201347 -0.122509 -0.329933
-0.187433 -0.131811 -0.318124
0.186385 -0.117722 -0.297054
0.174644 -0.142410 -0.318802
0.183957 -0.166389 -0.318736
0.182885 -0.141477 -0.321593
0.209805 -0.116144 -0.326506
0.227911 -0.116241 -0.333981
0.252465 -0.112939 -0.331958
0.279124 -0.137120 -0.329078
0.316550 -0.134734 -0.325244
0.282187 -0.091694 -0.322798
0.269545 -0.088833 -0.329021
0.357290 -0.139580 -0.318449
0.344580 -0.124102 -0.321339
0.352036 -0.084057 -0.318299
0.354789 -0.126562 -0.318446
-0.424998 -0.076418 -0.297978
-0.414321 -0.060783 -0.297053
-0.392106 -0.091475 -0.304421
-0.387728 -0.090072 -0.304198
-0.405938 -0.067354 -0.300485
-0.347177 -0.069875 -0.301204
-0.308727 -0.070753 -0.313374
-0.365070 -0.050087 -0.301659
-0.348779 -0.091343 -0.305567
-0.329595 -0.043947 -0.307826
0.281091 -0.086673 -0.326911
0.270280 -0.080761 -0.323571
0.334332 -0.059499 -0.313046
0.357964 -0.098441 -0.319809
0.336137 -0.038342 -0.304856
0.362893 -0.066387 -0.316648
-0.402032 -0.017267 -0.298269
-0.403775 -0.001680 -0.297448
-0.352587 -0.061385 -0.303084
-0.353166 -0.008476 -0.299222
-0.387518 -0.000414 -0.297872
-0.362362 -0.007278 -0.295111
0.417923 -0.049865 -0.306302
0.413262 -0.029609 -0.305304
0.370277 -0.009877 -0.307604
0.362737 -0.028289 -0.309784
-0.372896 -0.006072 -0.296704
-0.383799 -0.019557 -0.299556
-0.384793 0.004917 -0.298543
-0.379246 0.018146 -0.297346
0.360711 0.004478 -0.302132
0.366936 -0.020508 -0.307744
0.357184 -0.004369 -0.304098
0.354915 0.042885 -0.307170
-0.372268 0.034937 -0.295964
0.327435 0.029614 -0.292130
0.327923 0.072069 -0.306720
0.384455 0.027020 -0.305818
0.394063 0.027428 -0.303828
0.364530 0.038772 -0.308866
0.341938 0.073593 -0.305484
-0.262774 0.065544 -0.266973
-0.244777 0.091526 -0.320488
-0.103250 0.099042 -0.327974
0.115547 0.083952 -0.329882
0.088608 0.104772 -0.262323
0.338839 0.076367 -0.308385
-0.343957 0.141503 -0.302252
-0.347211 0.139850 -0.301591
-0.346001 0.157016 -0.301387
-0.325616 0.122880 -0.304017
-0.294178 0.065420 -0.289147
-0.319137 0.118621 -0.304932
-0.304280 0.103016 -0.304362
-0.244133 0.082197 -0.322285
-0.280939 0.083755 -0.313578
-0.284441 0.139973 -0.309572
-0.240703 0.091311 -0.310389
-0.185876 0.080016 -0.322011
-0.231095 0.146055 -0.314925
-0.201833 0.153474 -0.320193
-0.176585 0.118702 -0.326589
-0.122753 0.090102 -0.326208
-0.160463 0.114090 -0.328808
-0.195850 0.160162 -0.320553
-0.121152 0.093261 -0.325127
