0.216550 -0.159813 0.304444
0.210930 -0.160125 0.344345
0.237202 -0.166539 0.342997
0.295328 -0.154438 0.325689
0.294376 -0.186437 0.324688
0.295939 -0.147132 0.329188
0.293294 -0.148757 0.340092
0.354167 -0.212666 0.316689
0.356736 -0.134959 0.294335
-0.438144 -0.138120 0.318000
-0.374602 -0.135327 0.281270
-0.359000 -0.150555 0.320388
-0.377600 -0.110338 0.291824
-0.358448 -0.133642 0.313175
-0.357588 -0.088316 0.325630
-0.317190 -0.075714 0.321112
-0.324663 -0.129502 0.320237
-0.322556 -0.151673 0.334282
-0.320722 -0.074987 0.296021
-0.242530 -0.075947 0.329946
-0.282482 -0.137010 0.333308
-0.260738 -0.127767 0.353707
-0.250663 -0.110739 0.300530
-0.185441 -0.131636 0.302232
-0.211591 -0.103257 0.358001
-0.210532 -0.161518 0.331811
-0.198366 -0.098348 0.337310
-0.158557 -0.145616 0.315593
0.191769 -0.113819 0.307538
0.207426 -0.097168 0.338896
0.219668 -0.118287 0.354801
0.165758 -0.108006 0.289780
0.222953 -0.118748 0.310373
0.253697 -0.102625 0.326197
0.243074 -0.072786 0.324989
0.229576 -0.086496 0.348466
0.311442 -0.132501 0.326267
0.281418 -0.121959 0.335533
0.277126 -0.076188 0.326216
0.279029 -0.082895 0.314912
0.369112 -0.145175 0.317318
0.328045 -0.070469 0.293357
0.313327 -0.130105 0.295812
0.343160 -0.126732 0.312265
-0.431486 -0.093140 0.304057
-0.447755 -0.107335 0.312322
-0.354744 -0.081819 0.320530
-0.367504 -0.057316 0.311096
-0.357126 -0.071680 0.280303
-0.396171 -0.064877 0.322608
-0.345287 -0.076601 0.290286
-0.353319 -0.095049 0.330319
-0.328339 -0.078955 0.288340
0.294945 -0.085224 0.316781
0.297372 -0.047411 0.328960
0.285727 -0.049144 0.305321
0.288709 -0.060785 0.298115
0.351028 -0.049076 0.290870
0.381294 -0.085305 0.305596
-0.421472 -0.062453 0.293637
-0.371843 -0.036045 0.303436
-0.362165 -0.014591 0.289085
-0.363281 0.008724 0.290074
-0.378761 -0.015056 0.304263
0.416381 -0.031251 0.311295
0.372669 -0.029870 0.290619
-0.367114 -0.016077 0.326787
-0.365005 -0.018392 0.289236
-0.400546 0.023259 0.311456
-0.362435 0.030445 0.313363
0.393956 -0.008357 0.283136
0.362573 0.002815 0.282706
0.394217 0.027231 0.318682
0.349871 0.023016 0.321123
-0.378797 0.065790 0.300351
0.373255 0.038023 0.301014
0.353978 0.034834 0.287395
0.392825 0.042574 0.292463
0.389843 0.067424 0.329347
-0.248081 0.086430 0.281907
-0.265379 0.053574 0.341685
-0.181164 0.092062 0.313810
-0.206785 0.064049 0.296051
-0.203330 0.069222 0.314570
-0.108563 0.104391 0.275148
-0.073611 0.113353 0.341471
0.397059 0.105911 0.293365
0.381883 0.069598 0.302864
-0.320093 0.149495 0.303213
-0.334919 0.130760 0.292154
-0.366989 0.148748 0.269816
-0.307391 0.120783 0.316188
-0.271588 0.084462 0.284677
-0.340614 0.132600 0.296346
-0.309215 0.149546 0.311707
-0.274078 0.097805 0.308246
-0.267491 0.079509 0.299348
-0.296441 0.150044 0.327103
-0.243903 0.116182 0.313068
-0.213115 0.104915 0.309268
-0.176182 0.102540 0.333564
-0.234052 0.113054 0.310066
-0.244179 0.100412 0.315624
-0.170135 0.137147 0.331726
-0.184340 0.113055 0.299649
-0.109066 0.096756 0.334829
-0.114053 0.119171 0.311992
-0.126817 0.127652 0.320797
-0.077388 0.147176 0.290785
-0.073623 0.120445 0.296675
0.140409 0.136019 0.327697
0.122120 0.122116 0.328832
0.111232 0.125953 0.331164
0.126740 0.152323 0.327938
0.182259 0.084189 0.320045
0.186368 0.083134 0.334783
0.202277 0.122604 0.338900
0.194588 0.148608 0.317777
0.253046 0.113757 0.298683
0.251321 0.091798 0.333716
0.237576 0.149181 0.293110
0.228825 0.106634 0.294177
0.290657 0.090402 0.332153
0.249154 0.111948 0.299746
0.267637 0.129593 0.289810
0.260647 0.131709 0.338514
0.308175 0.134648 0.319380
0.319525 0.104366 0.287248
0.306103 0.119194 0.311962
0.302021 0.148118 0.287124
0.346612 0.063309 0.318171
0.336687 0.101067 0.328664
0.339160 0.116130 0.285006
0.360513 0.101000 0.288585
0.388728 0.134943 0.307698
0.362174 0.140478 0.289865
-0.317689 0.187423 0.306349
-0.331553 0.220629 0.317286
-0.280819 0.168730 0.335997
-0.263854 0.151563 0.314149
-0.301340 0.187503 0.310255
-0.212582 0.151761 0.292774
-0.240550 0.171311 0.331630
-0.204245 0.215903 0.304638
-0.168341 0.139326 0.319337
-0.184874 0.204541 0.341776
-0.174572 0.172774 0.336981
-0.066691 0.148825 0.321219
-0.101988 0.158304 0.313936
-0.101589 0.159992 0.348421
-0.137716 0.165908 0.308297
0.053778 0.163704 0.300690
0.107162 0.177465 0.312677
0.161199 0.192116 0.317638
0.118171 0.194511 0.295978
0.101035 0.195044 0.329581
0.117518 0.168320 0.327492
0.332152 0.133476 0.286240
0.297580 0.158395 0.280411
-0.281589 0.220594 0.294766
-0.299616 0.195454 0.280938
-0.250037 0.225672 0.285513
-0.284661 0.241092 0.280153
-0.215826 0.239006 0.289387
-0.220691 0.265881 0.311971
-0.158656 0.226577 0.310543
-0.173759 0.207656 0.296046
-0.208524 0.229986 0.321132
-0.099659 0.207590 0.320929
-0.085638 0.176030 0.313931
-0.130253 0.203695 0.300631
-0.116939 0.243211 0.303495
-0.059641 0.185829 0.287003
-0.079393 0.211267 0.342952
0.131012 0.251243 0.319584
0.139260 0.193006 0.288974
0.141125 0.257428 0.326659
0.125706 0.206546 0.327025
0.194514 0.230599 0.325958
0.166385 0.206463 0.330243
0.313339 0.203162 0.291575
0.282468 0.192543 0.287919
-0.236785 0.274687 0.294288
-0.213519 0.252791 0.280426
-0.172678 0.250180 0.331651
-0.166737 0.263998 0.297712
-0.111403 0.284930 0.314321
-0.142584 0.235328 0.336097
-0.071764 0.271398 0.302713
-0.125177 0.259043 0.331210
-0.069940 0.260244 0.338314
-0.065062 0.263407 0.318794
0.066527 0.243083 0.284768
0.082425 0.278233 0.336924
0.064350 0.298589 0.333681
0.130661 0.232008 0.315240
0.115982 0.250201 0.321322
0.096374 0.292989 0.312127
0.114013 0.280297 0.302585
0.151574 0.258189 0.328653
0.150827 0.261510 0.318106
0.197508 0.262235 0.307678
0.190440 0.265209 0.318321
-0.043958 0.298720 0.303069
-0.099069 0.297123 0.328301
-0.020477 0.319977 0.279662
-0.071413 0.286797 0.304907
-0.025430 0.318478 0.331973
0.015305 0.317847 0.328936
0.043968 0.293880 0.324067
0.058371 0.293148 0.306624
0.100164 0.259071 0.332735
0.079214 0.270341 0.297911
0.110858 0.261611 0.315749
0.126145 0.319762 0.303757
-0.012541 0.304013 0.291080
0.003385 0.333971 0.321536
0.000253 0.348354 0.290195
0.061629 0.304546 0.284223
0.030838 0.337386 0.275688
0.077002 0.362111 0.269544
0.083434 0.332138 0.305378
0.097779 0.316302 0.318106
0.115720 0.313074 0.283231
0.031022 -0.312569 0.312459
-0.128024 0.063312 0.333901
-0.125748 0.089216 0.353152
-0.063973 -0.310984 -0.321543
-0.010507 -0.316138 -0.333061
-0.123333 0.112805 -0.327518
-0.141144 0.069050 -0.320023
-0.113287 0.096630 -0.332004
0.155346 0.086805 -0.341358
0.131862 0.065842 -0.349027
0.146446 0.119483 -0.324148
-0.233461 -0.420217 -0.270176
-0.189864 -0.464798 -0.303727
-0.197913 -0.431122 -0.326341
-0.143213 -0.441687 -0.303208
-0.144180 -0.470843 -0.318626
-0.174436 -0.458307 -0.280365
0.008402 -0.484874 -0.310305
0.032552 -0.475097 -0.288531
0.052143 -0.457756 -0.292884
0.079654 -0.485845 -0.291840
0.101417 -0.461278 -0.319911
0.130925 -0.443684 -0.307353
0.148448 -0.470728 -0.318348
0.141087 -0.447463 -0.272920
-0.236156 -0.388045 -0.320980
-0.230425 -0.372371 -0.337480
-0.199899 -0.408304 -0.304669
-0.189413 -0.399275 -0.309207
-0.177393 -0.359517 -0.334197
-0.162632 -0.388891 -0.295121
-0.165972 -0.363229 -0.324857
-0.136010 -0.445443 -0.328795
-0.123121 -0.434934 -0.295765
-0.144035 -0.390543 -0.292092
-0.107887 -0.404940 -0.308888
-0.045762 -0.443459 -0.319000
-0.094158 -0.431268 -0.326454
-0.101625 -0.408417 -0.330310
-0.131792 -0.389487 -0.312795
-0.073210 -0.438403 -0.332410
-0.053616 -0.391111 -0.341698
-0.013630 -0.464527 -0.297335
0.010890 -0.397935 -0.330449
0.012586 -0.429891 -0.291633
-0.004242 -0.425454 -0.343267
0.052926 -0.458957 -0.312871
0.095005 -0.428178 -0.310293
0.113140 -0.438533 -0.338245
0.090160 -0.421135 -0.326952
0.139621 -0.406550 -0.332096
0.116805 -0.373846 -0.320246
0.185316 -0.432879 -0.323794
0.127924 -0.434490 -0.283686
0.152204 -0.387063 -0.320652
0.147115 -0.401237 -0.296984
0.221101 -0.423277 -0.279377
0.178557 -0.440155 -0.312405
0.167413 -0.391056 -0.338937
0.210220 -0.396301 -0.280870
0.206356 -0.418692 -0.318169
0.212746 -0.412713 -0.292948
-0.277843 -0.371461 -0.302658
-0.277199 -0.397198 -0.320944
-0.267053 -0.367198 -0.334386
-0.209051 -0.332096 -0.290617
-0.217480 -0.378114 -0.298420
-0.213289 -0.382509 -0.311068
-0.233111 -0.341194 -0.317181
-0.032806 -0.394832 -0.304905
0.028559 -0.366337 -0.316329
-0.014061 -0.330029 -0.341306
-0.014635 -0.332398 -0.310757
0.057680 -0.390771 -0.316424
0.096686 -0.331750 -0.336797
0.053080 -0.371130 -0.318694
0.078449 -0.355051 -0.322742
0.299517 -0.423071 -0.278540
0.335613 -0.391787 -0.282158
0.341560 -0.386078 -0.283510
0.279470 -0.339026 -0.278499
-0.323058 -0.327453 -0.289407
-0.328350 -0.356569 -0.282808
-0.258341 -0.327459 -0.293600
-0.271003 -0.310160 -0.317711
-0.249318 -0.319542 -0.338446
-0.260601 -0.318466 -0.318103
-0.073270 -0.319110 -0.294327
-0.095949 -0.375150 -0.289580
0.001224 -0.314043 -0.309048
-0.053990 -0.364378 -0.325820
0.259489 -0.374593 -0.312809
0.287388 -0.343032 -0.306228
0.326290 -0.316121 -0.309688
0.318053 -0.306052 -0.292271
0.253669 -0.303901 -0.284772
-0.263966 -0.315506 -0.320306
-0.263855 -0.265634 -0.295216
-0.246433 -0.295024 -0.316033
-0.317390 -0.296419 -0.282957
0.222243 -0.332176 -0.277189
0.233992 -0.298970 -0.300115
0.281660 -0.269178 -0.326380
0.330681 -0.298982 -0.283552
0.272133 -0.295511 -0.296589
0.369999 -0.304047 -0.291191
0.384503 -0.289526 -0.284532
-0.324587 -0.279504 -0.323038
-0.276950 -0.237287 -0.333412
-0.292501 -0.234776 -0.324762
-0.333844 -0.232957 -0.301054
0.213336 -0.264540 -0.332569
0.206836 -0.249013 -0.277884
0.231265 -0.255084 -0.311138
0.298083 -0.249204 -0.320103
0.278905 -0.223895 -0.290596
0.254908 -0.250057 -0.299431
0.315442 -0.275747 -0.275480
0.360236 -0.220985 -0.274742
-0.309801 -0.252879 -0.332567
-0.269225 -0.223507 -0.330982
-0.233729 -0.230532 -0.313571
-0.231706 -0.223224 -0.327458
0.235459 -0.186339 -0.354766
0.241489 -0.229685 -0.312156
0.209623 -0.221927 -0.317971
0.255767 -0.255185 -0.348447
0.234602 -0.243280 -0.347318
0.246015 -0.271840 -0.312670
0.285624 -0.240746 -0.288958
0.355468 -0.203468 -0.333929
0.339551 -0.209815 -0.293446
-0.371037 -0.185576 -0.314938
-0.398179 -0.155756 -0.309348
-0.353394 -0.196643 -0.288581
-0.323451 -0.143809 -0.315446
-0.209838 -0.171098 -0.352365
-0.267185 -0.189481 -0.297492
-0.225452 -0.144319 -0.330859
-0.203644 -0.155315 -0.361195
-0.218100 -0.095302 -0.333110
-0.259039 -0.156411 -0.317733
-0.212231 -0.181987 -0.319149
-0.225136 -0.118939 -0.308703
0.228123 -0.168811 -0.302785
0.200900 -0.122960 -0.340401
0.204440 -0.113095 -0.346967
0.242058 -0.121358 -0.323967
0.303563 -0.154890 -0.294799
0.250538 -0.173127 -0.316773
0.278521 -0.135802 -0.319975
0.303788 -0.139623 -0.329630
0.256234 -0.135571 -0.333269
0.261438 -0.096891 -0.354987
0.300252 -0.180478 -0.340797
0.311211 -0.172211 -0.320521
0.345592 -0.177745 -0.319266
0.347876 -0.177640 -0.308569
-0.406441 -0.093690 -0.291654
-0.459947 -0.108485 -0.312606
-0.368932 -0.152644 -0.315539
-0.372266 -0.115030 -0.312630
-0.384321 -0.108051 -0.335141
-0.339560 -0.117928 -0.281118
-0.312598 -0.124420 -0.296112
-0.373374 -0.114913 -0.304757
-0.326282 -0.093996 -0.328006
-0.333557 -0.096094 -0.298350
-0.286514 -0.138292 -0.309090
-0.330393 -0.133857 -0.322101
-0.276603 -0.081224 -0.328333
-0.271803 -0.072943 -0.322926
-0.277566 -0.076476 -0.323311
-0.341180 -0.094896 -0.302324
-0.250848 -0.085567 -0.316974
-0.260574 -0.104187 -0.342204
-0.193062 -0.111384 -0.331368
-0.191759 -0.116552 -0.357823
-0.222783 -0.107869 -0.302578
-0.191426 -0.138179 -0.278831
0.185668 -0.091916 -0.348244
0.208576 -0.092962 -0.298663
0.203419 -0.106386 -0.354726
0.231186 -0.130173 -0.334242
0.261205 -0.077255 -0.324876
0.276110 -0.101438 -0.329566
0.291947 -0.121801 -0.310686
0.258685 -0.139164 -0.337279
0.321188 -0.069333 -0.326820
0.304080 -0.097136 -0.322096
0.332582 -0.110435 -0.337668
0.349496 -0.103727 -0.285930
0.338375 -0.065605 -0.336095
0.296383 -0.092625 -0.344033
-0.419585 -0.039490 -0.305653
-0.430565 -0.077636 -0.321384
-0.398173 -0.046186 -0.314443
-0.325318 -0.057720 -0.310971
-0.347876 -0.040911 -0.300663
-0.332660 -0.054111 -0.321381
-0.311391 -0.026545 -0.324544
-0.339993 -0.057125 -0.299767
0.287353 -0.080057 -0.333758
0.334018 -0.040249 -0.330665
0.396726 -0.071951 -0.304943
0.362965 -0.040103 -0.297604
-0.428860 -0.034085 -0.305182
-0.453226 -0.041866 -0.285705
-0.334895 -0.037330 -0.285947
-0.331027 0.010350 -0.338455
-0.353890 0.015562 -0.305504
-0.326091 -0.040929 -0.270692
0.390779 -0.045527 -0.310620
0.361086 -0.027536 -0.324455
0.392774 -0.024090 -0.308731
0.338420 -0.007770 -0.284731
-0.367501 -0.020544 -0.311650
-0.365216 0.034998 -0.317736
-0.340366 0.008663 -0.315825
-0.388702 0.006899 -0.281391
0.352934 -0.013991 -0.336846
0.331562 -0.007270 -0.300916
0.362314 0.013275 -0.286401
0.297262 0.016687 -0.275658
0.322698 0.020739 -0.292050
0.344974 0.020835 -0.311455
0.363628 0.051530 -0.325563
-0.278997 0.063875 -0.293402
-0.102111 0.096398 -0.300713
-0.081221 0.080723 -0.312242
0.093670 0.080171 -0.315894
0.090795 0.071454 -0.311470
0.198513 0.063199 -0.318742
0.385257 0.095494 -0.266385
-0.327186 0.099838 -0.333833
-0.377529 0.123255 -0.295022
-0.348583 0.151311 -0.310297
-0.323817 0.114695 -0.294675
-0.261826 0.072753 -0.301558
-0.337659 0.133623 -0.289369
-0.308337 0.136808 -0.293616
-0.301594 0.126767 -0.321189
-0.218537 0.070315 -0.342288
-0.278346 0.099062 -0.328586
-0.255546 0.097708 -0.335825
-0.251381 0.139049 -0.318849
-0.200545 0.072301 -0.326051
-0.230677 0.149153 -0.324932
-0.158301 0.108236 -0.331604
-0.199934 0.096072 -0.340767
-0.166599 0.138261 -0.326058
-0.117852 0.143600 -0.338614
-0.131097 0.178803 -0.341961
-0.194990 0.135703 -0.314251
-0.136679 0.134554 -0.351710
-0.093942 0.126100 -0.321017
0.134851 0.122378 -0.359605
0.113626 0.116815 -0.314876
0.083841 0.164276 -0.314352
0.119070 0.173213 -0.326279
0.155665 0.132097 -0.322141
0.221571 0.068074 -0.319256
0.158819 0.127126 -0.330755
0.213312 0.142900 -0.312408
0.186944 0.161729 -0.345437
0.254975 0.085469 -0.305259
0.214391 0.076123 -0.303996
0.211611 0.147361 -0.333183
0.272041 0.112687 -0.344274
0.280296 0.075993 -0.316760
0.266353 0.075932 -0.300126
0.277907 0.130581 -0.286010
0.283026 0.143258 -0.331251
0.282198 0.057855 -0.324653
0.298201 0.077862 -0.319242
0.279272 0.104046 -0.286905
0.334159 0.119142 -0.315206
0.314693 0.088801 -0.284626
0.313477 0.152408 -0.309988
0.334486 0.165389 -0.324175
0.395266 0.129303 -0.313051
0.340111 0.123374 -0.296875
-0.328606 0.151451 -0.315873
-0.281018 0.207623 -0.299105
-0.218620 0.138347 -0.298737
-0.258304 0.134745 -0.305770
-0.274044 0.174347 -0.306393
-0.227804 0.173540 -0.292093
-0.218785 0.149722 -0.312440
-0.216322 0.202440 -0.322755
-0.170659 0.174719 -0.322124
-0.126235 0.207086 -0.333319
-0.135435 0.191529 -0.324999
-0.203097 0.183750 -0.286467
-0.135261 0.148783 -0.326998
-0.085434 0.179369 -0.325172
-0.067353 0.215609 -0.327453
-0.111584 0.215290 -0.337449
-0.105177 0.169639 -0.307074
-0.099029 0.204589 -0.310282
-0.074232 0.153557 -0.295722
-0.098971 0.167831 -0.309406
0.095682 0.173021 -0.335722
0.085393 0.165576 -0.307525
0.128354 0.175862 -0.316850
0.155158 0.163647 -0.333523
0.143701 0.178167 -0.335152
0.112056 0.216204 -0.302633
0.272445 0.135002 -0.294582
0.295160 0.162008 -0.319070
-0.281811 0.249936 -0.287396
-0.315171 0.224456 -0.263821
-0.251186 0.224605 -0.300057
-0.238713 0.207349 -0.289920
-0.244457 0.196773 -0.281769
-0.212408 0.213512 -0.322455
-0.191251 0.226421 -0.309153
-0.183859 0.222890 -0.337595
-0.125557 0.223214 -0.324482
-0.106310 0.241011 -0.290984
-0.058277 0.227960 -0.307754
-0.150987 0.228575 -0.317557
0.092063 0.204178 -0.301669
0.101423 0.247067 -0.286669
0.119852 0.236060 -0.329765
0.090810 0.257470 -0.309609
0.149010 0.204241 -0.326811
0.191696 0.219037 -0.306367
0.317270 0.191243 -0.311904
0.283283 0.209493 -0.314577
-0.250623 0.236492 -0.312793
-0.200745 0.296448 -0.322899
-0.188334 0.264434 -0.312099
-0.174226 0.268466 -0.325546
-0.065345 0.221561 -0.290883
-0.108123 0.270060 -0.295002
-0.048841 0.273818 -0.320400
-0.105251 0.289531 -0.301469
0.090576 0.247513 -0.294797
0.074666 0.227671 -0.314732
0.044811 0.231082 -0.321849
0.105886 0.240440 -0.327805
0.116087 0.244801 -0.310892
0.141314 0.276151 -0.283358
0.147682 0.286471 -0.273378
-0.034192 0.284912 -0.335526
-0.066029 0.278436 -0.320897
0.009837 0.289602 -0.293593
0.032268 0.267011 -0.322199
0.026702 0.298023 -0.321052
0.040348 0.280651 -0.291306
0.049352 0.322242 -0.300935
0.119046 0.315460 -0.332560
0.111706 0.294925 -0.306021
-0.007937 0.298147 -0.302250
0.019989 0.343252 -0.279851
0.027593 0.321720 -0.301575
-0.015065 0.296339 -0.306454
0.061575 0.341290 -0.291215
0.045111 0.295079 -0.291627
-0.132555 -0.631372 -0.274723
-0.102672 -0.609662 -0.242122
-0.064837 -0.627480 -0.234743
-0.082232 -0.666101 -0.272936
-0.160734 -0.639676 -0.251215
-0.094505 -0.652047 -0.261001
-0.091246 -0.634802 -0.285165
-0.074311 -0.612502 -0.239985
-0.067393 -0.618158 -0.265431
-0.073670 -0.590419 -0.260557
0.073725 -0.621023 -0.259232
0.083472 -0.611110 -0.266632
0.096316 -0.637397 -0.231413
0.119345 -0.627124 -0.286328
-0.182097 -0.535530 -0.247394
-0.051107 -0.576350 -0.255263
-0.071822 -0.570382 -0.277737
-0.003777 -0.608939 -0.286089
0.104719 -0.567971 -0.260484
0.135437 -0.543243 -0.272296
0.153783 -0.539535 -0.275865
0.123137 -0.548450 -0.303124
0.175432 -0.606037 -0.265645
0.189772 -0.581972 -0.243234
0.211443 -0.566872 -0.252163
0.232121 -0.532656 -0.260895
0.266756 -0.587467 -0.250516
0.278528 -0.541920 -0.259933
0.334680 -0.543303 -0.265023
-0.003075 -0.583637 -0.298919
0.002239 -0.571283 -0.291974
0.037822 -0.567461 -0.271575
0.002889 -0.553563 -0.287556
0.082149 -0.560927 -0.270764
0.069565 -0.545287 -0.266372
0.231376 -0.545234 -0.282016
0.210402 -0.483039 -0.302536
0.251462 -0.531425 -0.240410
0.279931 -0.505070 -0.245663
0.296315 -0.526404 -0.279837
0.310010 -0.529992 -0.242006
0.368650 -0.531333 -0.240447
0.394797 -0.515690 -0.244802
0.274418 -0.452999 -0.261406
0.256812 -0.468630 -0.298509
0.284094 -0.502418 -0.257996
0.307834 -0.450951 -0.278067
0.371678 -0.483398 -0.265201
0.386972 -0.466721 -0.285138
0.406656 -0.507865 -0.239106
0.416993 -0.456294 -0.268692
-0.311692 -0.476825 -0.277973
-0.342867 -0.442080 -0.258136
0.302817 -0.400101 -0.277384
0.288448 -0.433910 -0.266017
0.321170 -0.467966 -0.291218
0.343524 -0.418523 -0.295472
0.365295 -0.474205 -0.265673
0.431489 -0.403871 -0.243632
0.426150 -0.426856 -0.246388
0.439157 -0.430465 -0.248178
-0.322981 -0.429423 -0.286792
-0.373479 -0.416898 -0.268016
0.353195 -0.393263 -0.306309
0.349833 -0.374971 -0.310470
0.396045 -0.428081 -0.277486
0.436661 -0.394810 -0.252379
0.439289 -0.401391 -0.236402
0.435302 -0.354563 -0.236268
0.483404 -0.400193 -0.222495
0.503682 -0.349546 -0.228901
-0.448965 -0.352825 -0.247831
-0.447053 -0.301362 -0.257300
-0.368692 -0.384704 -0.287387
-0.395112 -0.363043 -0.252929
0.434083 -0.350047 -0.268254
0.391671 -0.366762 -0.274783
0.480432 -0.329825 -0.281639
0.512534 -0.338211 -0.270437
-0.452718 -0.343293 -0.267155
-0.453344 -0.286917 -0.264890
-0.015945 -0.253392 -0.256867
-0.020874 -0.291112 -0.241492
0.463906 -0.293881 -0.275883
0.479067 -0.293943 -0.257393
-0.447916 -0.226573 -0.270080
-0.473557 -0.270289 -0.263409
-0.474900 -0.240546 -0.284694
-0.473494 -0.238296 -0.295935
-0.469448 -0.250103 -0.273929
-0.474795 -0.250363 -0.265078
0.000229 -0.251105 -0.262186
-0.014570 -0.269655 -0.236486
0.461358 -0.240474 -0.254714
0.452605 -0.248917 -0.301874
0.213327 -0.212345 -0.286829
0.180573 -0.179951 -0.298403
0.204210 -0.237247 -0.228406
0.183393 -0.191299 -0.279554
0.223062 -0.254814 -0.250317
0.177706 -0.237860 -0.287417
0.454558 -0.241054 -0.285387
0.439470 -0.234040 -0.272398
-0.576921 -0.180311 -0.272670
-0.591907 -0.153535 -0.248393
-0.555096 -0.107262 -0.224524
-0.571106 -0.119977 -0.280309
-0.574021 -0.121190 -0.242925
-0.544041 -0.089544 -0.247332
-0.523331 -0.150425 -0.271721
-0.517619 -0.137850 -0.271529
-0.504794 -0.143736 -0.240020
-0.532997 -0.148446 -0.286245
-0.504565 -0.145804 -0.294325
-0.487540 -0.128449 -0.250699
-0.192844 -0.136876 -0.303521
0.191217 -0.120718 -0.275042
0.218936 -0.122349 -0.275294
0.209481 -0.086736 -0.228714
0.227865 -0.088201 -0.265024
0.530648 -0.173187 -0.265243
0.546878 -0.121117 -0.285196
0.514102 -0.116127 -0.282183
0.576180 -0.109998 -0.246653
-0.585063 -0.086618 -0.253798
-0.570001 -0.072068 -0.238603
-0.244279 -0.092842 -0.262929
-0.300687 -0.078418 -0.258595
-0.543686 -0.029660 -0.275131
-0.535943 -0.011798 -0.239647
-0.484854 0.040784 -0.285361
-0.446802 0.048627 -0.276938
-0.120959 0.086949 -0.244832
-0.173398 0.053943 -0.273667
-0.514887 0.073767 -0.252069
-0.461522 0.093328 -0.274427
0.246625 0.063234 -0.269497
-0.506515 0.118649 -0.287087
-0.458227 0.143494 -0.241317
-0.474729 0.146253 -0.270793
-0.430546 0.138496 -0.255083
-0.107267 0.120977 -0.276257
-0.114109 0.082711 -0.280602
-0.094391 0.143084 -0.287363
-0.102780 0.121699 -0.274210
0.079583 0.091111 -0.280628
0.100918 0.144267 -0.276550
0.097083 0.136022 -0.241852
0.060587 0.136967 -0.215351
0.498706 0.123054 -0.277167
-0.473708 0.191226 -0.256092
-0.490897 0.175989 -0.285067
-0.448436 0.168165 -0.294198
-0.426663 0.193304 -0.246613
-0.411994 0.171856 -0.254307
-0.386443 0.215240 -0.270650
0.069287 0.151459 -0.242204
0.048155 0.215040 -0.264431
-0.430554 0.218273 -0.265236
-0.437391 0.218490 -0.285388
-0.369990 0.196382 -0.273608
-0.418883 0.220891 -0.297671
-0.368840 0.265639 -0.288868
-0.402416 0.221234 -0.293884
-0.391279 0.235368 -0.264488
-0.361205 0.242261 -0.281797
0.375881 0.279478 -0.285580
0.398050 0.239256 -0.275832
-0.426876 0.272599 -0.248741
-0.405782 0.258594 -0.285402
-0.418286 0.291287 -0.250114
-0.393340 0.292323 -0.256583
-0.392094 0.288038 -0.262020
-0.374162 0.320673 -0.227232
-0.407175 0.282712 -0.243470
-0.312046 0.289684 -0.292045
-0.374343 0.282707 -0.279270
-0.352747 0.313280 -0.244607
-0.346318 0.330207 -0.279442
-0.331985 0.294324 -0.299352
-0.317375 0.288309 -0.253401
-0.289068 0.309590 -0.303149
-0.270237 0.272341 -0.269426
-0.353677 0.248558 -0.288246
-0.308984 0.326111 -0.272346
0.314321 0.270956 -0.290414
0.304053 0.281246 -0.270315
0.300333 0.299972 -0.282029
0.292428 0.341958 -0.294763
0.316527 0.295619 -0.267741
0.336148 0.309855 -0.254514
0.356144 0.293821 -0.286952
0.330636 0.279802 -0.272890
0.356760 0.325707 -0.277297
0.351822 0.287867 -0.250960
0.426282 0.272616 -0.250629
0.466523 0.301038 -0.270319
-0.232282 0.334490 -0.294573
-0.219860 0.370689 -0.295576
0.226977 0.360738 -0.254509
0.253085 0.327361 -0.249943
-0.257988 0.373313 -0.253801
-0.226678 0.381072 -0.274670
-0.230264 0.369431 -0.262431
-0.265891 0.379701 -0.262289
0.234172 0.345097 -0.278547
0.232198 0.350115 -0.291032
0.278454 0.403315 -0.290553
0.246329 0.372747 -0.289832
-0.253666 0.419543 -0.282341
-0.199868 0.437609 -0.244434
-0.250374 0.418942 -0.236782
-0.279334 0.413679 -0.282158
-0.200533 0.414221 -0.255358
-0.144579 0.409176 -0.286341
-0.173209 0.389764 -0.257354
-0.100164 0.422464 -0.284302
0.279976 0.375043 -0.230782
0.251987 0.393838 -0.270680
-0.234328 0.469336 -0.264995
-0.256177 0.452426 -0.253383
-0.096697 0.429918 -0.278666
-0.060624 0.451100 -0.238155
-0.226743 -0.750546 -0.229722
-0.168040 -0.756806 -0.210248
-0.216928 -0.751797 -0.183274
-0.184089 -0.753069 -0.204382
0.155549 -0.714424 -0.216049
0.201775 -0.703698 -0.208517
-0.144990 -0.695182 -0.221187
-0.172464 -0.664567 -0.210602
0.140913 -0.737764 -0.222721
0.198543 -0.709480 -0.211014
0.199308 -0.684408 -0.205235
0.233587 -0.674159 -0.208744
-0.069049 -0.650416 -0.169779
-0.052978 -0.667617 -0.220805
0.233017 -0.648991 -0.229977
0.270066 -0.636487 -0.221546
0.283664 -0.663006 -0.215288
0.337033 -0.622429 -0.245686
0.360021 -0.683753 -0.207157
0.346046 -0.615543 -0.196281
-0.415195 -0.586827 -0.220683
-0.435954 -0.627284 -0.219897
0.351068 -0.642645 -0.200051
0.386305 -0.614823 -0.255680
0.360457 -0.611569 -0.242453
0.433534 -0.597591 -0.237198
0.427645 -0.594749 -0.206820
0.439288 -0.623742 -0.209999
-0.462771 -0.549074 -0.206832
-0.444891 -0.588922 -0.228014
0.395232 -0.563155 -0.210156
0.404815 -0.561143 -0.227006
0.417134 -0.581539 -0.243118
0.453325 -0.545111 -0.243224
0.477029 -0.594203 -0.187007
0.509473 -0.573149 -0.220913
-0.556866 -0.465186 -0.198173
-0.582469 -0.466153 -0.222655
-0.543384 -0.526222 -0.201522
-0.502028 -0.541982 -0.221955
-0.406239 -0.544304 -0.236646
-0.454731 -0.528858 -0.220037
0.466525 -0.515091 -0.244237
0.442785 -0.548392 -0.205688
0.458917 -0.549739 -0.198716
0.480329 -0.497539 -0.207994
0.537078 -0.513360 -0.175380
0.547511 -0.515054 -0.195824
-0.523612 -0.445537 -0.250567
-0.539654 -0.477287 -0.220422
0.478700 -0.467235 -0.207609
0.469148 -0.508084 -0.242683
0.537264 -0.489332 -0.243636
0.575242 -0.438206 -0.200944
0.578841 -0.459792 -0.205534
0.553128 -0.430250 -0.225964
0.553730 -0.448097 -0.208891
0.543894 -0.462254 -0.224423
0.561658 -0.395783 -0.226803
-0.520182 -0.374646 -0.221880
-0.530377 -0.338782 -0.202118
0.237133 -0.254999 -0.185492
0.239737 -0.261368 -0.242564
-0.515834 -0.195470 -0.198598
-0.573842 -0.197084 -0.229797
-0.167218 -0.182257 -0.197651
-0.185231 -0.205677 -0.229560
-0.647897 -0.079626 -0.225589
-0.668282 -0.114740 -0.222403
-0.618636 -0.112450 -0.233600
-0.665990 -0.104102 -0.223759
-0.620585 -0.108700 -0.230722
-0.639674 -0.101823 -0.253242
0.619351 -0.100536 -0.222561
0.633870 -0.043751 -0.236446
0.666968 -0.115872 -0.198655
0.694167 -0.102528 -0.236403
-0.127339 0.069498 -0.190942
-0.180034 0.062610 -0.220023
0.204322 0.041376 -0.200816
0.163205 0.070765 -0.221057
-0.611126 0.057754 -0.214568
-0.629479 0.099790 -0.200887
-0.652856 0.143211 -0.218816
-0.598005 0.121886 -0.233975
-0.065871 0.150810 -0.201925
-0.066549 0.141445 -0.225437
0.099781 0.139946 -0.203994
0.101278 0.156855 -0.250622
-0.608361 0.176111 -0.245416
-0.587693 0.170891 -0.229803
-0.609958 0.206876 -0.213441
-0.542602 0.249720 -0.211050
-0.589250 0.240787 -0.196497
-0.591210 0.296661 -0.213544
-0.552053 0.270604 -0.230364
-0.501963 0.290239 -0.252332
0.509364 0.264339 -0.217503
0.485415 0.273385 -0.214508
-0.508341 0.328627 -0.222305
-0.494469 0.333002 -0.217395
-0.261347 0.384719 -0.225690
-0.298163 0.437799 -0.203221
-0.294259 0.424758 -0.203532
-0.245540 0.465931 -0.229235
-0.273887 0.422111 -0.173042
0.296266 0.460329 -0.223302
0.283617 0.430077 -0.209367
-0.233059 0.459277 -0.213581
-0.243786 0.513917 -0.253706
-0.179003 0.489564 -0.259913
-0.186251 0.526324 -0.218122
0.223083 0.512145 -0.227399
0.232870 0.491466 -0.226790
-0.241281 0.521021 -0.213390
-0.219591 0.523300 -0.217538
-0.177760 0.532424 -0.249806
-0.150227 0.526818 -0.211957
-0.150323 0.581995 -0.197995
-0.205772 0.579309 -0.228063
-0.304167 -0.792245 -0.165583
-0.287143 -0.814044 -0.189430
0.281731 -0.794652 -0.177007
0.283634 -0.794429 -0.193885
0.362889 -0.740584 -0.147236
0.389127 -0.747475 -0.199529
0.423643 -0.700061 -0.187052
0.370738 -0.678655 -0.186341
0.412268 -0.730325 -0.170872
0.443126 -0.708671 -0.174351
-0.537185 -0.641913 -0.183937
-0.501495 -0.638489 -0.157657
-0.409013 -0.672632 -0.170832
-0.455094 -0.629882 -0.196830
0.428763 -0.615578 -0.184933
0.418533 -0.687177 -0.172698
0.458140 -0.637127 -0.200761
0.472437 -0.617762 -0.166751
0.512168 -0.632128 -0.167400
0.554594 -0.653945 -0.166258
-0.603833 -0.568217 -0.187175
-0.624898 -0.560605 -0.146168
-0.588085 -0.619989 -0.187917
-0.566967 -0.610384 -0.173259
-0.497707 -0.650661 -0.203927
-0.497096 -0.624291 -0.184458
0.510494 -0.609614 -0.188072
0.460316 -0.647033 -0.178103
0.536153 -0.609723 -0.183733
0.531743 -0.601300 -0.177127
0.540428 -0.594228 -0.151834
0.602147 -0.568478 -0.139688
0.587179 -0.626333 -0.147015
-0.526580 -0.611995 -0.160315
-0.549106 -0.592360 -0.161483
0.528096 -0.547246 -0.216531
0.503218 -0.591360 -0.181769
0.573355 -0.542595 -0.186666
0.572706 -0.523979 -0.169854
-0.579643 -0.537699 -0.156075
-0.597911 -0.541209 -0.177573
0.571042 -0.535561 -0.181699
0.621239 -0.498071 -0.187862
-0.555119 -0.406771 -0.164905
-0.509233 -0.358225 -0.192710
-0.545394 -0.362803 -0.236170
0.539254 -0.406136 -0.225345
0.545038 -0.391332 -0.179810
0.541112 -0.369507 -0.176740
0.562698 -0.405236 -0.138089
0.580598 -0.419209 -0.153505
0.557536 -0.413521 -0.225408
0.247798 -0.305132 -0.154290
0.209232 -0.283254 -0.208559
-0.568615 -0.177155 -0.184388
-0.558880 -0.195238 -0.174897
-0.215956 -0.229318 -0.205891
-0.153858 -0.196123 -0.209064
0.570669 -0.214416 -0.139922
0.582082 -0.163709 -0.162823
-0.586119 -0.181184 -0.164141
-0.588019 -0.186607 -0.171578
-0.692557 -0.121286 -0.173697
0.339489 -0.028061 -0.179916
0.341940 -0.026203 -0.205061
-0.168555 0.048281 -0.150493
-0.178833 0.091756 -0.159920
0.198214 0.084234 -0.168781
0.143163 0.045653 -0.166378
-0.080477 0.169674 -0.194083
-0.075895 0.095088 -0.153632
0.062865 0.141354 -0.190417
0.093176 0.125202 -0.177961
-0.705949 0.156436 -0.180724
-0.721589 0.213815 -0.152817
0.719623 0.177854 -0.197691
0.700252 0.171157 -0.164119
-0.657732 0.254809 -0.201423
-0.655664 0.293377 -0.154293
-0.681951 0.355150 -0.167653
-0.623392 0.271966 -0.168723
-0.620497 0.351721 -0.185908
0.693704 0.346339 -0.133767
0.660724 0.336429 -0.182478
0.667774 0.327022 -0.180051
0.673825 0.329302 -0.154787
0.682982 0.283911 -0.191722
0.630730 0.357309 -0.148478
-0.471782 0.351289 -0.193903
-0.461671 0.352111 -0.149227
0.412472 0.335682 -0.204601
0.462695 0.347367 -0.154979
0.459950 0.350062 -0.194548
0.517672 0.382184 -0.186502
0.560204 0.355249 -0.189611
-0.254424 0.374707 -0.170842
-0.278832 0.449772 -0.159902
-0.251122 0.444295 -0.209019
-0.252894 0.487627 -0.163624
-0.276428 0.490167 -0.233129
0.275435 0.455840 -0.192064
0.293157 0.414853 -0.205563
0.257118 0.453526 -0.187808
0.288855 0.486037 -0.177831
-0.247679 0.490672 -0.171599
-0.251517 0.500362 -0.184627
-0.272846 0.506535 -0.189464
-0.288469 0.543447 -0.181199
0.291953 0.513713 -0.216805
0.271369 0.479253 -0.176179
-0.283520 0.539574 -0.161290
-0.247727 0.529880 -0.212772
-0.280457 0.563259 -0.184479
-0.259119 0.551518 -0.205899
0.260883 0.538881 -0.177490
0.287809 0.531930 -0.182472
-0.242948 0.631615 -0.146428
-0.230362 0.636296 -0.198600
-0.170299 0.681711 -0.157927
-0.392487 -0.870295 -0.141081
-0.382437 -0.836476 -0.105021
-0.339783 -0.831146 -0.149206
-0.392485 -0.885822 -0.096915
-0.399513 -0.860755 -0.078562
-0.381467 -0.866040 -0.078310
0.390736 -0.855970 -0.095104
0.381375 -0.882069 -0.096231
-0.322902 -0.851631 -0.154135
-0.388412 -0.806931 -0.136256
-0.330338 -0.810582 -0.155532
-0.347148 -0.795654 -0.141720
-0.208409 -0.831793 -0.125944
-0.256664 -0.852770 -0.157487
0.366990 -0.863468 -0.131553
0.388130 -0.840146 -0.137687
0.404681 -0.850064 -0.112233
0.421576 -0.801759 -0.107519
0.450335 -0.806337 -0.130240
0.453729 -0.768328 -0.152408
0.490579 -0.808864 -0.140581
0.527455 -0.793297 -0.095023
0.135726 -0.764373 -0.136508
0.148771 -0.736579 -0.120313
0.501431 -0.743849 -0.126495
0.481457 -0.754634 -0.124665
0.507493 -0.768559 -0.119818
0.561760 -0.714175 -0.113220
-0.540662 -0.693111 -0.125329
-0.518875 -0.684961 -0.131825
0.571042 -0.671436 -0.140758
0.533985 -0.696052 -0.150361
0.588702 -0.700441 -0.140706
0.577971 -0.693572 -0.138063
-0.590695 -0.665268 -0.141010
-0.590948 -0.662768 -0.155410
0.580229 -0.622565 -0.128228
0.556759 -0.634014 -0.119052
0.641661 -0.666622 -0.089611
0.607810 -0.683240 -0.145377
0.662216 -0.649586 -0.115467
0.639338 -0.625030 -0.128806
0.655209 -0.608129 -0.149684
0.634186 -0.642214 -0.161104
-0.605058 -0.640723 -0.139109
-0.618504 -0.619936 -0.151417
0.619324 -0.626885 -0.153433
0.628393 -0.618534 -0.131019
0.667846 -0.589027 -0.127340
0.618984 -0.603415 -0.161263
-0.560768 -0.427464 -0.156463
-0.573115 -0.450501 -0.186657
0.602280 -0.448500 -0.187763
0.596328 -0.448641 -0.118043
0.236249 -0.289096 -0.101921
0.213138 -0.263846 -0.129084
-0.197576 -0.222396 -0.112186
-0.172676 -0.159455 -0.160663
-0.819695 -0.060946 -0.135782
-0.826787 -0.080134 -0.109784
0.301555 -0.053487 -0.147534
0.331271 -0.014940 -0.119350
-0.862392 0.068633 -0.119974
-0.842086 0.055796 -0.115108
-0.844322 0.049810 -0.109770
-0.861708 -0.000849 -0.097108
-0.855672 0.052181 -0.123575
-0.172467 0.065374 -0.093715
-0.165959 0.051651 -0.135967
0.172639 0.087034 -0.142901
0.151959 0.065984 -0.139437
0.878346 0.019206 -0.145654
0.841461 0.035056 -0.098795
-0.068014 0.155642 -0.141186
-0.067673 0.091262 -0.104355
0.103596 0.111834 -0.126819
0.097271 0.155672 -0.165535
-0.751782 0.234204 -0.131938
-0.758635 0.265779 -0.130414
0.741346 0.295401 -0.131868
0.731414 0.296499 -0.151568
-0.751414 0.313459 -0.118749
-0.757991 0.288669 -0.117080
-0.747488 0.341875 -0.107438
-0.750305 0.328849 -0.132982
-0.698632 0.281910 -0.131817
-0.722642 0.324292 -0.124768
-0.570220 0.355360 -0.160887
-0.578981 0.385256 -0.139300
-0.664737 0.392289 -0.117800
-0.604031 0.398441 -0.122232
-0.599100 0.356462 -0.185094
-0.568764 0.341544 -0.137575
-0.536982 0.335600 -0.157477
-0.508578 0.348164 -0.099401
-0.514290 0.344265 -0.141624
-0.493184 0.343722 -0.134366
-0.427033 0.331521 -0.167229
-0.435184 0.319788 -0.141428
0.480234 0.342940 -0.137868
0.496787 0.377629 -0.144825
0.505897 0.351503 -0.142438
0.562092 0.358221 -0.097866
0.560974 0.386047 -0.126774
0.577879 0.352942 -0.132494
0.637465 0.399613 -0.102364
0.653873 0.361260 -0.119046
-0.265645 0.444478 -0.130075
-0.294017 0.479225 -0.135134
0.247428 0.452599 -0.172488
0.292475 0.411682 -0.114040
-0.279496 0.493971 -0.100559
-0.257174 0.505648 -0.120512
0.290723 0.501090 -0.136996
0.276701 0.478530 -0.132866
0.289239 0.554213 -0.155846
0.244048 0.536682 -0.141439
-0.277824 0.555796 -0.116159
-0.228242 0.586841 -0.125495
0.249742 0.559404 -0.161121
0.234973 0.570859 -0.148905
0.252050 0.595989 -0.171886
0.266024 0.618909 -0.102591
0.251507 0.639877 -0.145720
0.228090 0.656835 -0.099372
0.218807 0.643774 -0.134811
0.235396 0.641290 -0.170289
-0.215836 0.711922 -0.140712
0.183754 0.803246 -0.128767
0.134545 0.779024 -0.142751
-0.125717 0.818863 -0.106579
-0.123391 0.796794 -0.102896
-0.493187 -0.895485 -0.067262
0.492294 -0.900880 -0.094286
-0.415152 -0.918073 -0.072576
-0.427079 -0.870267 -0.105326
0.455942 -0.851240 -0.119269
0.412316 -0.887325 -0.079905
0.475676 -0.883785 -0.098228
0.528175 -0.883017 -0.065871
-0.456254 -0.822547 -0.082439
-0.481118 -0.850853 -0.077720
-0.244428 -0.858791 -0.151589
-0.220865 -0.844628 -0.115177
0.265228 -0.854669 -0.113502
0.252567 -0.845942 -0.058695
0.500283 -0.844921 -0.083479
0.540586 -0.786253 -0.062091
-0.622105 -0.768363 -0.048969
0.581679 -0.796090 -0.069944
0.554748 -0.810771 -0.078803
0.615894 -0.789035 -0.055226
0.630332 -0.806182 -0.078743
0.625044 -0.820668 -0.058141
0.601116 -0.770550 -0.048828
0.628057 -0.739936 -0.085446
-0.619319 -0.748072 -0.097592
-0.685333 -0.725908 -0.047549
-0.605918 -0.765678 -0.082535
-0.622194 -0.744877 -0.114261
-0.610509 -0.557658 -0.104519
-0.644761 -0.563891 -0.113483
0.654980 -0.547286 -0.104114
0.630486 -0.523021 -0.087667
0.203190 -0.293447 -0.097907
0.215476 -0.284984 -0.075615
-0.174111 -0.175903 -0.065921
-0.201710 -0.189676 -0.091251
-0.887615 -0.027903 -0.057006
-0.888158 -0.025691 -0.096981
0.322938 -0.043740 -0.105243
0.303241 -0.037755 -0.093884
-0.166157 0.049383 -0.080665
-0.167591 0.050858 -0.089106
0.183601 0.074163 -0.100781
0.134559 0.078618 -0.116944
-0.922857 0.106591 -0.080339
-0.891568 0.099876 -0.081447
-0.903416 0.056488 -0.062669
-0.949051 0.067247 -0.068234
-0.904320 0.123064 -0.067531
-0.960203 0.068934 -0.056244
-0.923184 0.064275 -0.105607
-0.858915 0.105167 -0.121296
0.894520 0.111520 -0.088281
0.887140 0.089709 -0.092442
-0.081484 0.169404 -0.116953
-0.096849 0.145361 -0.052528
0.072482 0.115354 -0.084760
0.090341 0.146169 -0.110719
-0.658879 0.398512 -0.082333
-0.647443 0.386437 -0.074084
-0.566478 0.393538 -0.100477
-0.653557 0.373169 -0.116390
-0.628003 0.391770 -0.084765
-0.573160 0.358651 -0.095554
-0.566498 0.343987 -0.092501
-0.545509 0.384410 -0.073849
-0.564902 0.355515 -0.120298
-0.535047 0.357566 -0.056555
-0.476251 0.335631 -0.118603
-0.495979 0.329286 -0.092064
-0.441049 0.327861 -0.122127
-0.449251 0.318957 -0.103058
0.481972 0.346661 -0.109161
0.522575 0.329581 -0.088621
0.540338 0.339054 -0.089046
0.541682 0.386283 -0.085243
0.587889 0.378269 -0.083282
0.569827 0.348365 -0.091931
0.657750 0.371636 -0.119130
0.639112 0.357901 -0.101700
0.793206 0.380588 -0.077568
0.810404 0.349090 -0.081930
-0.272496 0.450319 -0.101807
-0.248773 0.453941 -0.085497
0.270682 0.456029 -0.121268
0.274283 0.408080 -0.083639
-0.258861 0.458474 -0.091163
-0.254169 0.508080 -0.124077
0.276311 0.493030 -0.081013
0.249264 0.496020 -0.081509
-0.272458 0.525986 -0.090623
-0.271749 0.535505 -0.118932
0.236253 0.534308 -0.115493
0.270901 0.509068 -0.101962
-0.240354 0.551980 -0.080584
-0.234669 0.603420 -0.106461
0.253503 0.610562 -0.089704
0.280036 0.545723 -0.087408
-0.205941 0.717745 -0.095606
-0.210272 0.710503 -0.112331
-0.197568 0.708565 -0.098340
-0.210063 0.756464 -0.084369
0.198886 0.726336 -0.098506
0.222281 0.721888 -0.114154
0.215842 0.712334 -0.091978
0.240076 0.721601 -0.076730
-0.204229 0.726320 -0.112795
-0.233662 0.744378 -0.055175
-0.173739 0.800197 -0.117012
-0.126086 0.827733 -0.098547
-0.571388 -0.916729 -0.020062
-0.576992 -0.914638 -0.009419
-0.547882 -0.907521 -0.019799
-0.496479 -0.949970 -0.010098
-0.454091 -0.906935 -0.042714
0.549064 -0.960175 -0.014839
0.505551 -0.930957 -0.056599
0.571815 -0.927059 -0.026101
0.538814 -0.929126 -0.022271
0.536710 -0.916017 -0.017332
0.543881 -0.925744 -0.068308
-0.554312 -0.925563 -0.024916
-0.581509 -0.869167 -0.036977
-0.371304 -0.913297 -0.039112
-0.327249 -0.877267 -0.045192
-0.349044 -0.910156 -0.043084
-0.335333 -0.871337 -0.023330
-0.288929 -0.853196 -0.068754
-0.336313 -0.902331 -0.052348
0.619666 -0.836813 -0.061864
0.591615 -0.896569 -0.038221
0.639912 -0.857378 -0.007962
0.667960 -0.849917 -0.022781
0.639942 -0.877112 -0.003455
0.589570 -0.831106 -0.066772
-0.665135 -0.801707 -0.024475
-0.662035 -0.836878 -0.041873
-0.580594 -0.831526 -0.050613
-0.618785 -0.845547 -0.036057
-0.675437 -0.790805 -0.061624
-0.699811 -0.798220 -0.072154
-0.672990 -0.703452 -0.045676
-0.666561 -0.677276 -0.094991
-0.676508 -0.705071 -0.046030
-0.673921 -0.654086 -0.055511
0.661291 -0.694018 -0.085533
0.653322 -0.715480 -0.035257
-0.689833 -0.674072 -0.056603
-0.678318 -0.662562 -0.078336
0.660293 -0.632584 -0.060104
0.667491 -0.655712 -0.063277
0.671290 -0.609673 -0.046232
0.657222 -0.653968 -0.041607
0.234223 -0.284984 -0.009281
0.200157 -0.242275 -0.040036
-0.182810 -0.197940 -0.074353
-0.182096 -0.207903 -0.051845
-0.878868 0.003235 -0.100723
-0.885569 -0.036333 -0.047625
0.336847 -0.018241 -0.013501
0.319058 -0.021860 -0.058132
0.853697 -0.028175 -0.024286
0.854637 -0.005579 -0.051023
-0.135337 0.040170 -0.001844
-0.181408 0.081269 -0.060560
0.187733 0.059762 -0.049559
0.147208 0.072453 -0.070417
-0.104819 0.152499 -0.067406
-0.114560 0.126344 -0.051049
0.107698 0.120229 -0.030735
0.085460 0.157445 -0.051497
-0.967074 0.167918 -0.060972
-1.000926 0.145107 -0.032273
-1.011564 0.203745 0.006094
-0.971610 0.165652 -0.015509
-0.957996 0.196381 -0.056973
-1.015100 0.156736 -0.021040
0.985735 0.192560 0.009719
0.951996 0.182029 -0.017304
0.942099 0.224419 -0.059092
0.969885 0.219844 -0.024534
-0.944070 0.207824 -0.000134
-0.997978 0.218475 0.006229
0.969868 0.217300 -0.022154
0.955099 0.230848 -0.033723
-0.931351 0.306722 -0.024852
-0.928034 0.254251 -0.018633
0.892063 0.244860 -0.044514
0.884843 0.312035 -0.054879
0.951349 0.255639 -0.032905
0.888122 0.271987 -0.041248
-0.927416 0.296528 -0.014207
-0.876398 0.317625 -0.060298
-0.851714 0.373104 -0.051870
-0.839215 0.346189 -0.014327
-0.587857 0.390107 -0.063435
-0.583131 0.347013 -0.028774
-0.517741 0.352166 -0.043406
-0.493728 0.361872 -0.036118
-0.488858 0.371791 -0.059747
-0.460865 0.348742 -0.014604
0.467669 0.376547 -0.052393
0.521125 0.357546 -0.004601
0.516356 0.338607 -0.058911
0.546688 0.365696 -0.034502
0.576183 0.371742 -0.055839
0.555766 0.377142 -0.033366
0.880083 0.384896 -0.015698
-0.723389 0.371712 -0.035976
-0.700797 0.382236 -0.036138
-0.261817 0.428766 -0.015913
-0.283942 0.439600 -0.047165
0.266072 0.445482 -0.049838
0.259709 0.443410 -0.039424
-0.253646 0.483017 -0.059421
-0.263602 0.483826 -0.080448
0.277131 0.510146 -0.048734
0.277114 0.496617 -0.038074
-0.235002 0.529197 -0.045442
-0.274529 0.529637 -0.063527
0.251193 0.549079 -0.068419
0.266672 0.534032 -0.024205
-0.272061 0.554136 -0.038098
-0.274159 0.612582 -0.051838
0.236378 0.598156 -0.051239
0.282138 0.556466 -0.038890
-0.208601 0.731144 -0.042629
-0.204484 0.774987 -0.083422
-0.204057 0.756558 -0.005142
-0.205198 0.745785 -0.056861
0.219864 0.731094 -0.062790
0.229964 0.760283 -0.030608
0.205501 0.744102 -0.080040
0.238099 0.755567 -0.025519
0.212934 0.774012 -0.039331
0.207133 0.802763 -0.042266
0.228159 0.764624 -0.044842
0.202867 0.762689 -0.043303
-0.172451 0.834368 -0.074548
-0.156993 0.867973 -0.000994
0.003768 0.953839 0.002783
-0.030401 0.913122 -0.022102
-0.014650 0.931994 -0.048632
-0.018305 0.954551 -0.022913
0.047636 0.918636 -0.039349
0.025730 0.939759 -0.028383
0.074678 0.924969 -0.008812
0.020555 0.954426 -0.039191
-0.418548 -0.947360 -0.016226
-0.437970 -0.919532 0.031474
-0.427708 -0.947051 -0.018344
-0.419055 -0.948203 0.035118
-0.403009 -0.915471 -0.026813
-0.373432 -0.909980 0.022096
-0.409587 -0.901170 0.013126
-0.411290 -0.920322 -0.017589
0.387744 -0.940619 -0.009568
0.362255 -0.923562 0.014568
0.431726 -0.922685 -0.020630
0.436602 -0.962302 0.028863
0.449011 -0.924763 0.042683
0.375689 -0.941807 -0.003031
0.447701 -0.923556 0.002260
0.407321 -0.957052 -0.038642
-0.697531 -0.832711 0.015960
-0.673023 -0.805261 -0.031472
0.670475 -0.836447 0.013867
0.673548 -0.816471 0.034448
0.697335 -0.760222 -0.046473
0.668453 -0.810081 -0.011591
-0.702050 -0.715227 0.018332
-0.664983 -0.695661 -0.000721
0.686555 -0.736386 -0.042041
0.660170 -0.743811 0.030264
-0.656592 -0.697433 -0.015751
-0.668137 -0.685835 0.006384
-0.667082 -0.679019 -0.003375
-0.653391 -0.702804 -0.007283
0.677476 -0.678782 -0.010674
0.691805 -0.735205 0.007902
0.678736 -0.686518 -0.004316
0.678177 -0.649429 0.034427
-0.671165 -0.695913 -0.000769
-0.686808 -0.618496 -0.023658
0.652907 -0.617593 0.012826
0.646156 -0.681400 0.032466
-0.670167 -0.616262 0.024259
-0.633249 -0.593711 -0.009714
0.667139 -0.619169 -0.017844
0.689427 -0.597473 -0.007246
0.244962 -0.253053 -0.006020
0.240654 -0.284192 0.016626
-0.173274 -0.206981 -0.007822
-0.198989 -0.164446 -0.010682
0.344198 -0.025152 -0.013938
0.336502 -0.018358 -0.029960
-0.954200 0.064324 -0.032581
-0.917768 0.025063 0.028688
0.948056 0.038561 0.043911
0.918018 0.047068 0.009707
-0.148797 0.039739 0.033905
-0.159652 0.090634 0.017977
0.204351 0.063123 -0.021659
0.179955 0.035579 -0.002307
0.995939 0.104497 -0.038629
0.975928 0.106081 0.012417
-0.104624 0.134498 -0.011354
-0.112847 0.128399 0.029376
0.105265 0.099498 -0.006535
0.062682 0.117023 -0.004827
0.985688 0.208129 -0.019893
-0.886396 0.356249 -0.024460
-0.888065 0.374315 0.010946
-0.894240 0.363648 0.017291
-0.845514 0.363735 0.025080
-0.850161 0.383545 -0.012566
-0.826482 0.364989 0.002710
-0.576963 0.356416 0.019031
-0.579645 0.377111 0.025359
-0.513421 0.342586 -0.024843
-0.541584 0.379579 0.021578
-0.468052 0.329485 -0.025783
-0.467992 0.353096 0.007288
0.457962 0.376365 0.001065
0.476145 0.341855 0.001821
0.500790 0.381676 0.011607
0.537975 0.391951 -0.016232
0.570726 0.355613 0.014350
0.565849 0.359638 -0.007181
0.855541 0.369595 -0.009114
0.836635 0.372789 -0.017577
0.842338 0.369638 0.048792
0.887627 0.366714 0.004888
0.802374 0.354187 0.054236
0.872364 0.339886 0.020067
0.883496 0.345145 -0.024902
0.886665 0.349973 0.019573
-0.698343 0.391418 -0.013602
-0.702175 0.401675 -0.005258
0.698219 0.353674 -0.001736
0.690453 0.376625 -0.006882
-0.280910 0.418971 0.012614
-0.248108 0.427856 -0.020992
0.260441 0.466929 0.005126
0.275255 0.423795 0.003913
-0.280468 0.501734 0.016199
-0.242458 0.502173 -0.001328
0.238873 0.526014 -0.033441
0.263534 0.488425 -0.003208
-0.275014 0.533078 0.008502
-0.270714 0.550408 -0.035270
0.274114 0.525432 -0.028725
0.251494 0.500659 0.023781
-0.275105 0.553496 0.014803
-0.227042 0.562799 -0.019251
0.266984 0.578363 -0.031413
0.243139 0.593712 0.038528
-0.162050 0.832909 0.030270
-0.167974 0.859859 0.020881
-0.572459 -0.920649 0.027197
-0.571618 -0.913749 0.033519
-0.552247 -0.954949 0.028746
-0.560178 -0.914519 0.045425
-0.519918 -0.919097 0.043151
-0.543157 -0.932310 0.022397
0.466427 -0.945258 0.062716
0.474557 -0.901076 0.043352
0.514725 -0.900491 0.039147
0.529806 -0.938663 0.008267
0.553489 -0.922106 0.018054
0.578412 -0.935787 0.010602
-0.565457 -0.846965 0.023454
-0.544134 -0.893927 0.039933
0.338247 -0.896313 0.046839
0.343559 -0.900700 0.089412
0.334227 -0.894555 0.055851
0.316358 -0.857340 0.042651
0.372374 -0.932249 0.076887
0.358322 -0.867562 0.045616
0.569656 -0.915474 0.041292
0.588155 -0.894123 0.062933
0.597451 -0.834485 0.057638
0.663249 -0.810627 0.044633
0.630630 -0.844706 0.045126
0.663360 -0.830495 0.053073
0.624519 -0.846564 0.036064
0.672373 -0.848070 0.028777
-0.672137 -0.729182 0.078099
-0.661493 -0.757189 0.088735
0.682881 -0.707955 0.063255
0.702607 -0.711759 0.040143
-0.670587 -0.698179 0.080405
-0.690925 -0.682348 0.057961
0.702201 -0.706484 0.022793
0.694689 -0.693112 0.064218
0.670950 -0.658809 0.033744
0.665140 -0.659965 0.075255
-0.684187 -0.654053 0.062449
-0.628824 -0.602738 0.062814
0.663387 -0.625661 0.035726
0.667720 -0.619586 0.090887
-0.677491 -0.610267 0.077129
-0.625365 -0.563591 0.063404
0.203097 -0.307006 0.084010
0.219529 -0.251352 0.031888
-0.202743 -0.195719 0.052813
-0.170597 -0.176841 0.039344
-0.853097 -0.011374 0.018492
-0.874441 0.007341 0.078673
0.302857 -0.032208 0.031899
0.344537 -0.035842 0.046584
0.906430 0.004583 0.074653
0.888210 0.008140 0.076071
0.838109 -0.001693 0.089765
0.865241 0.003912 0.060163
-0.136357 0.077439 0.070310
-0.163326 0.079412 0.039260
0.155586 0.078722 0.016490
0.130773 0.071773 0.032995
-0.949817 0.119428 0.067314
0.917247 0.110116 0.081977
0.918378 0.051531 0.038962
-0.084269 0.124949 0.017001
-0.093122 0.117531 0.060164
0.098658 0.124582 0.061106
0.091384 0.137630 0.034977
0.957641 0.158666 0.061731
0.981839 0.142176 0.042588
0.996930 0.157688 0.034379
0.993037 0.248066 0.030642
0.981240 0.233140 0.024009
0.969527 0.188663 0.050946
-0.899683 0.319058 0.061629
-0.892005 0.247289 0.037547
